X,Y,Z,R,G,B
-1467.213867, 2533.717773, -17.069927, 63, 141, 255
-1489.828003, 2538.82959, -20.281084, 63, 141, 255
-1463.930298, 2532.546631, -15.512163, 63, 141, 255
-1516.017822, 2513.729492, -12.65396, 63, 141, 255
-1492.817017, 2505.595215, -11.707207, 63, 141, 255
-1498.981079, 2510.561523, -11.739654, 63, 141, 255
-1479.155273, 2538.499023, -19.641827, 63, 141, 255
-1508.165405, 2547.460693, -20.33914, 63, 141, 255
-1494.302979, 2555.807617, -16.038994, 63, 141, 255
-1486.010742, 2540.28418, -20.587774, 63, 141, 255
-1474.557617, 2539.172607, -19.697344, 63, 141, 255
-1506.590454, 2542.3396, -21.016094, 63, 141, 255
-1498.613159, 2549.554443, -20.03145, 63, 141, 255
-1509.910034, 2513.28418, -11.829521, 63, 141, 255
-1487.03186, 2519.810791, -14.144976, 63, 141, 255
-1506.938843, 2511.057617, -11.466899, 63, 141, 255
-1497.288086, 2481.569336, -14.109453, 63, 141, 255
-1497.37793, 2527.057617, -11.385088, 63, 141, 255
-1457.53186, 2538.085693, -18.923613, 63, 141, 255
-1514.463135, 2534.745117, -20.494268, 63, 141, 255
-1509.69751, 2530.832764, -17.095243, 63, 141, 255
-1498.606812, 2517.760742, -13.23001, 63, 141, 255
-1488.606812, 2511.284912, -11.396514, 63, 141, 255
-1483.774048, 2517.207764, -12.166118, 63, 141, 255
-1511.139648, 2498.84668, -11.054766, 63, 141, 255
-1483.732666, 2528.501465, -15.346367, 63, 141, 255
-1500.204468, 2550.213135, -22.392998, 63, 141, 255
-1461.641235, 2545.756104, -16.669828, 63, 141, 255
-1486.352173, 2515.860107, -21.110502, 63, 141, 255
-1453.461548, 2533.748291, -13.024736, 63, 141, 255
-1498.135742, 2559.749023, -17.413261, 63, 141, 255
-1462.671753, 2536.763184, -15.421343, 63, 141, 255
-1464.692749, 2543.486572, -14.239018, 63, 141, 255
-1506.574097, 2511.182617, -5.714751, 63, 141, 255
-1462.682617, 2532.593506, -15.783549, 63, 141, 255
-1507.29126, 2507.278076, -10.917876, 63, 141, 255
-1488.162354, 2544.59668, -21.641289, 63, 141, 255
-1459.319336, 2541.381836, -19.947222, 63, 141, 255
-1457.708374, 2542.104492, -19.698906, 63, 141, 255
-1504.411499, 2555.94043, -15.60103, 63, 141, 255
-1491.953003, 2521.224121, -16.228252, 63, 141, 255
-1508.014648, 2535.207764, -19.908331, 63, 141, 255
-1488.790405, 2558.422607, -14.458867, 63, 141, 255
-1519.127197, 2516.141357, -12.999785, 63, 141, 255
-1494.551392, 2550.899902, -19.330278, 63, 141, 255
-1491.330322, 2547.699951, -20.580084, 63, 141, 255
-1495.848999, 2542.8396, -21.429033, 63, 141, 255
-1474.195923, 2533.562256, -17.139946, 63, 141, 255
-1499.680298, 2529.817871, -11.459233, 63, 141, 255
-1503.319336, 2539.939697, -21.103228, 63, 141, 255
-1497.031128, 2501.264648, -10.032427, 63, 141, 255
-1504.560791, 2499.71167, -11.165361, 63, 141, 255
-1491.941284, 2513.834961, -11.233012, 63, 141, 255
-1511.675659, 2502.590576, -9.784136, 63, 141, 255
-1511.109985, 2506.070068, -10.757011, 63, 141, 255
-1492.865479, 2540.911621, -20.558989, 63, 141, 255
-1499.777954, 2514.124756, -11.858452, 63, 141, 255
-1500.540405, 2506.937256, -10.520732, 63, 141, 255
-1495.308472, 2512.202881, -11.201909, 63, 141, 255
-1500.799072, 2503.290527, -9.626958, 63, 141, 255
-1481.149048, 2533.862305, -17.619854, 63, 141, 255
-1470.847534, 2532.24292, -15.794291, 63, 141, 255
-1496.016968, 2508.073975, -11.602569, 63, 141, 255
-1519.703735, 2520.49585, -13.067534, 63, 141, 255
-1496.434937, 2534.29834, -15.302836, 63, 141, 255
-1494.809204, 2530.274902, -12.650835, 63, 141, 255
-1472.932617, 2527.978027, -13.551714, 63, 141, 255
-1480.836548, 2526.400635, -17.958427, 63, 141, 255
-1495.414673, 2490.40918, -18.578032, 63, 141, 255
-1510.433472, 2494.611572, -7.170513, 63, 141, 255
-1515.567017, 2529.684326, -17.481817, 63, 141, 255
-1509.50769, 2531.8396, -18.80357, 63, 141, 255
-1499.43103, 2495.127197, -7.274077, 63, 141, 255
-1471.120117, 2540.842041, -20.049955, 63, 141, 255
-1507.297485, 2523.006836, -12.623052, 63, 141, 255
-1504.395142, 2502.398193, 1.286812, 63, 141, 255
-1500.124023, 2540.156982, -8.773808, 63, 141, 255
-1492.763062, 2545.486572, -16.068438, 63, 141, 255
-1506.249023, 2511.161621, -5.58167, 63, 141, 255
-1512.774048, 2534.608398, -5.366265, 63, 141, 255
-1467.223267, 2533.771729, -17.039434, 63, 141, 255
-1485.303711, 2542.599854, -20.720562, 63, 141, 255
-1489.675659, 2538.802979, -20.165459, 63, 141, 255
-1517.084961, 2510.246826, -11.904912, 63, 141, 255
-1513.481079, 2511.817139, -11.593925, 63, 141, 255
-1463.371704, 2541.901367, -19.903399, 63, 141, 255
-1461.811523, 2538.052979, -19.369341, 63, 141, 255
-1467.585815, 2536.806885, -19.058477, 63, 141, 255
-1503.039673, 2522.929443, -12.483574, 63, 141, 255
-1481.231079, 2543.144287, -20.953032, 63, 141, 255
-1478.833374, 2536.528076, -19.020367, 63, 141, 255
-1477.96228, 2541.217773, -20.197857, 63, 141, 255
-1485.516235, 2544.231934, -20.753424, 63, 141, 255
-1504.03418, 2555.323242, -17.270658, 63, 141, 255
-1502.401367, 2515.273193, -14.114873, 63, 141, 255
-1474.146729, 2536.802979, -19.153643, 63, 141, 255
-1489.170166, 2542.47168, -20.854717, 63, 141, 255
-1454.068604, 2539.885742, -19.389288, 63, 141, 255
-1499.178711, 2545.382568, -21.039679, 63, 141, 255
-1505.232666, 2533.875732, -19.023394, 63, 141, 255
-1486.799072, 2536.912354, -20.144659, 63, 141, 255
-1509.885742, 2518.24292, -10.041533, 63, 141, 255
-1512.552124, 2514.716309, -13.230107, 63, 141, 255
-1514.004517, 2508.100586, -11.640971, 63, 141, 255
-1482.461548, 2540.677979, -20.003008, 63, 141, 255
-1516.505249, 2517.528076, -12.963531, 63, 141, 255
-1484.12793, 2550.756104, -18.958941, 63, 141, 255
-1487.365479, 2548.645264, -20.078497, 63, 141, 255
-1495.211548, 2546.395264, -21.396441, 63, 141, 255
-1496.742065, 2539.363037, -20.730497, 63, 141, 255
-1503.43103, 2519.895264, -13.796953, 63, 141, 255
-1488.020874, 2522.958496, -13.646318, 63, 141, 255
-1501.140503, 2526.827881, -11.929253, 63, 141, 255
-1499.980347, 2499.615479, -10.688042, 63, 141, 255
-1484.272461, 2521.722412, -13.345146, 63, 141, 255
-1506.591187, 2502.513184, -11.400981, 63, 141, 255
-1480.288086, 2522.577881, -13.612798, 63, 141, 255
-1510.516968, 2509.603027, -11.183037, 63, 141, 255
-1470.600586, 2535.11084, -18.321074, 63, 141, 255
-1494.376343, 2516.095947, -12.486137, 63, 141, 255
-1460.177979, 2535.077881, -17.564043, 63, 141, 255
-1515.160034, 2500.784912, -10.002739, 63, 141, 255
-1514.204468, 2539.064697, -20.315264, 63, 141, 255
-1495.749023, 2478.614014, -16.633404, 63, 141, 255
-1470.889648, 2538.935791, -19.53997, 63, 141, 255
-1512.955322, 2531.934326, -18.566656, 63, 141, 255
-1495.154541, 2524.019287, -11.57371, 63, 141, 255
-1452.437378, 2534.811523, -16.346319, 63, 141, 255
-1516.80603, 2532.256836, -18.863432, 63, 141, 255
-1459.08728, 2532.970947, -14.584868, 63, 141, 255
-1517.533447, 2506.169434, -12.148027, 63, 141, 255
-1508.138062, 2493.202148, -11.168218, 63, 141, 255
-1502.923218, 2544.02417, -21.068901, 63, 141, 255
-1456.263916, 2534.849121, -17.061846, 63, 141, 255
-1512.245972, 2527.981934, -14.475932, 63, 141, 255
-1515.920898, 2526.525635, -14.580034, 63, 141, 255
-1490.792847, 2531.051514, -12.321001, 63, 141, 255
-1477.361572, 2531.235107, -12.379619, 63, 141, 255
-1468.395142, 2532.529541, -12.283599, 63, 141, 255
-1494.539673, 2560.609131, -14.522636, 63, 141, 255
-1490.628784, 2534.293701, -16.293413, 63, 141, 255
-1505.51001, 2527.903809, -18.910772, 63, 141, 255
-1480.703003, 2534.244385, -16.800299, 63, 141, 255
-1505.444336, 2492.637451, -5.313677, 63, 141, 255
-1488.199097, 2541.694336, -20.680082, 63, 141, 255
-1514.590454, 2534.437256, -20.731474, 63, 141, 255
-1494.050659, 2546.225586, -20.48958, 63, 141, 255
-1476.459229, 2543.927979, -21.014336, 63, 141, 255
-1494.144409, 2498.317139, -8.127642, 63, 141, 255
-1465.392822, 2536.097412, -19.651592, 63, 141, 255
-1491.220093, 2527.826416, -15.148516, 63, 141, 255
-1498.592041, 2480.366943, -7.591508, 63, 141, 255
-1483.747437, 2549.912354, -14.082573, 63, 141, 255
-1488.97644, 2542.94043, -12.683965, 63, 141, 255
-1503.413086, 2552.193604, -15.195513, 63, 141, 255
-1510.707642, 2548.057617, -14.553545, 63, 141, 255
-1481.448242, 2551.177979, -16.946367, 63, 141, 255
-1515.413086, 2529.04126, -17.392681, 63, 141, 255
-1501.28418, 2527.448242, -7.760429, 63, 141, 255
-1493.497437, 2511.90918, -0.011699, 63, 141, 255
-1525.039673, 2616.108398, -17.999296, 63, 141, 255
-1518.553711, 2605.598389, -22.780132, 63, 141, 255
-1546.762329, 2601.177246, -35.060482, 63, 141, 255
-1534.760742, 2597.685791, -17.294706, 63, 141, 255
-1528.94043, 2551.44751, -18.803667, 63, 141, 255
-1555.710815, 2582.012451, -23.013287, 63, 141, 255
-1549.876343, 2577.335693, -24.753349, 63, 141, 255
-1544.80603, 2604.963867, -20.039068, 63, 141, 255
-1526.763062, 2614.327148, -15.27188, 63, 141, 255
-1513.606812, 2556.093506, -12.480034, 63, 141, 255
-1527.777954, 2594.083496, -16.551495, 63, 141, 255
-1526.21228, 2549.10376, -18.747099, 63, 141, 255
-1520.488892, 2544.147461, -20.759209, 63, 141, 255
-1552.553711, 2566.506836, -15.427373, 63, 141, 255
-1533.751343, 2614.088135, -17.374737, 63, 141, 255
-1534.26001, 2623.984131, -14.796074, 63, 141, 255
-1546.709961, 2592.249023, -18.250689, 63, 141, 255
-1541.539673, 2556.388184, -16.55711, 63, 141, 255
-1510.905273, 2549.15918, -19.955425, 63, 141, 255
-1543.360718, 2555.903076, -16.992144, 63, 141, 255
-1524.112305, 2588.07251, -16.621588, 63, 141, 255
-1518.029541, 2583.424072, -17.24107, 63, 141, 255
-1537.373291, 2589.696045, -18.621538, 63, 141, 255
-1541.308472, 2589.273193, -18.143852, 63, 141, 255
-1557.916992, 2600.073975, -23.280912, 63, 141, 255
-1519.934937, 2615.844482, -16.834576, 63, 141, 255
-1536.727905, 2568.238037, -13.122466, 63, 141, 255
-1525.893555, 2625.651367, -14.793144, 63, 141, 255
-1542.44519, 2559.369385, -16.573662, 63, 141, 255
-1507.753784, 2557.862305, -16.188213, 63, 141, 255
-1557.010742, 2578.427979, -22.269171, 63, 141, 255
-1543.446655, 2609.96167, -18.43936, 63, 141, 255
-1547.442749, 2609.133545, -18.140972, 63, 141, 255
-1550.154541, 2573.575684, -24.652813, 63, 141, 255
-1525.991211, 2583.737305, -24.950981, 63, 141, 255
-1516.723267, 2575.959229, -24.963482, 63, 141, 255
-1546.492798, 2587.236572, -25.248198, 63, 141, 255
-1508.998291, 2602.94043, -23.971342, 63, 141, 255
-1557.446655, 2606.352295, -24.117094, 63, 141, 255
-1527.585815, 2579.99292, -24.629864, 63, 141, 255
-1531.046753, 2582.099121, -23.534477, 63, 141, 255
-1554.300659, 2606.845215, -18.18648, 63, 141, 255
-1535.770142, 2568.62793, -9.518877, 63, 141, 255
-1508.97168, 2570.009277, -23.612432, 63, 141, 255
-1538.066284, 2617.970947, -9.897588, 63, 141, 255
-1513.475586, 2569.377197, -27.83592, 63, 141, 255
-1497.53894, 2594.438232, -48.858212, 63, 141, 255
-1514.520874, 2555.520264, -5.710699, 63, 141, 255
-1545.22644, 2587.76001, -20.190605, 63, 141, 255
-1522.939697, 2626.674072, -17.674345, 63, 141, 255
-1529.639648, 2570.349854, -52.204327, 63, 141, 255
-1505.97644, 2576.585693, -25.679279, 63, 141, 255
-1526.164673, 2612.575684, -18.722075, 63, 141, 255
-1538.045166, 2546.437256, -20.071295, 63, 141, 255
-1524.294312, 2588.462402, -16.56568, 63, 141, 255
-1535.677979, 2575.544434, -9.819219, 63, 141, 255
-1518.584229, 2584.145996, -16.61746, 63, 141, 255
-1511.314697, 2556.27417, -14.837504, 63, 141, 255
-1524.91394, 2577.393555, -24.572638, 63, 141, 255
-1541.886597, 2578.470215, -25.349443, 63, 141, 255
-1540.549072, 2598.674805, -20.768805, 63, 141, 255
-1533.654541, 2564.915527, -14.50396, 63, 141, 255
-1535.773315, 2558.088867, -16.456596, 63, 141, 255
-1532.031128, 2579.987305, -14.94871, 63, 141, 255
-1517.582642, 2612.6521, -17.56497, 63, 141, 255
-1545.515503, 2562.032715, -16.190092, 63, 141, 255
-1548.646729, 2596.427979, -19.281109, 63, 141, 255
-1542.116211, 2612.889648, -18.352324, 63, 141, 255
-1544.106812, 2586.921631, -19.970659, 63, 141, 255
-1539.741211, 2602.922607, -19.233746, 63, 141, 255
-1537.838867, 2584.321045, -24.302397, 63, 141, 255
-1527.68103, 2569.052246, -13.384673, 63, 141, 255
-1512.626343, 2577.908447, -25.259233, 63, 141, 255
-1508.524048, 2595.941162, -22.621367, 63, 141, 255
-1511.763062, 2560.670166, -14.868316, 63, 141, 255
-1520.975586, 2575.030273, -26.908014, 63, 141, 255
-1521.112305, 2559.143555, -15.736968, 63, 141, 255
-1551.624023, 2599.810059, -20.487577, 63, 141, 255
-1546.495117, 2575.040527, -25.013872, 63, 141, 255
-1514.97644, 2573.084229, -23.811064, 63, 141, 255
-1543.859253, 2592.641357, -20.930864, 63, 141, 255
-1527.463867, 2608.595947, -19.54793, 63, 141, 255
-1557.220093, 2573.148193, -24.576347, 63, 141, 255
-1556.459961, 2596.876465, -21.864824, 63, 141, 255
-1504.143555, 2559.412354, -17.26375, 63, 141, 255
-1516.080322, 2584.012451, -23.972637, 63, 141, 255
-1516.573242, 2580.1521, -24.954302, 63, 141, 255
-1538.658447, 2576.598389, -27.108479, 63, 141, 255
-1538.131836, 2575.94043, -14.871269, 63, 141, 255
-1542.339722, 2582.418701, -14.423345, 63, 141, 255
-1518.762329, 2564.1521, -20.05335, 63, 141, 255
-1545.759155, 2577.288818, -13.860112, 63, 141, 255
-1537.561523, 2616.136475, -13.635063, 63, 141, 255
-1509.126343, 2571.292725, -21.565142, 63, 141, 255
-1507.515503, 2602.321777, -44.774128, 63, 141, 255
-1525.952148, 2585.238037, -50.556282, 63, 141, 255
-1518.518555, 2554.634277, -12.014946, 63, 141, 255
-1510.999023, 2566.606934, -19.430082, 63, 141, 255
-1517.876343, 2599.263916, -17.868389, 63, 141, 255
-1540.245117, 2620.05542, -17.062384, 63, 141, 255
-1519.239624, 2627.743652, -23.375982, 63, 141, 255
-1505.329468, 2622.906006, -36.869637, 63, 141, 255
-1517.32019, 2608.705322, -20.109259, 63, 141, 255
-1528.036499, 2618.483398, -17.413872, 63, 141, 255
-1529.418579, 2615.085693, -17.636089, 63, 141, 255
-1551.903687, 2596.435791, -18.883062, 63, 141, 255
-1529.513062, 2615.263184, -17.507011, 63, 141, 255
-1536.44751, 2554.33667, -16.947002, 63, 141, 255
-1538.061523, 2590.991943, -18.155327, 63, 141, 255
-1526.934204, 2622.431885, -16.025566, 63, 141, 255
-1510.205322, 2550.276367, -18.772123, 63, 141, 255
-1540.536499, 2608.292725, -16.848003, 63, 141, 255
-1552.360718, 2559.466309, -15.982231, 63, 141, 255
-1533.356079, 2589.771729, -19.424053, 63, 141, 255
-1549.178711, 2617.325684, -18.204473, 63, 141, 255
-1533.076416, 2602.334961, -17.367388, 63, 141, 255
-1523.897461, 2577.802246, -26.667585, 63, 141, 255
-1546.441284, 2599.343506, -20.542925, 63, 141, 255
-1538.903687, 2566.728027, -15.079253, 63, 141, 255
-1538.655273, 2597.821777, -19.127935, 63, 141, 255
-1543.345947, 2576.687256, -24.479448, 63, 141, 255
-1560.301392, 2589.83667, -23.163042, 63, 141, 255
-1538.702148, 2560.708496, -15.910674, 63, 141, 255
-1532.888916, 2555.851318, -16.383598, 63, 141, 255
-1555.158447, 2573.041992, -21.526007, 63, 141, 255
-1548.331055, 2591.597412, -20.236967, 63, 141, 255
-1546.245972, 2558.386475, -16.716118, 63, 141, 255
-1543.261597, 2595.024902, -18.336821, 63, 141, 255
-1514.524048, 2553.560059, -17.326178, 63, 141, 255
-1532.983398, 2550.837402, -18.686211, 63, 141, 255
-1530.227173, 2548.427979, -18.962042, 63, 141, 255
-1527.231079, 2545.495117, -20.020317, 63, 141, 255
-1512.503784, 2546.549072, -20.256695, 63, 141, 255
-1521.013916, 2540.113037, -21.28089, 63, 141, 255
-1559.220947, 2582.741211, -25.444633, 63, 141, 255
-1555.873291, 2588.070068, -23.855425, 63, 141, 255
-1544.835815, 2615.186523, -18.162798, 63, 141, 255
-1531.78418, 2598.122559, -19.313189, 63, 141, 255
-1508.308472, 2586.69751, -23.532988, 63, 141, 255
-1551.936523, 2590.795898, -19.578911, 63, 141, 255
-1559.583374, 2597.184326, -23.745684, 63, 141, 255
-1542.957642, 2600.925537, -20.050249, 63, 141, 255
-1555.138916, 2565.07959, -17.11878, 63, 141, 255
-1552.717041, 2605.513184, -18.958843, 63, 141, 255
-1548.516968, 2583.696777, -24.04373, 63, 141, 255
-1551.80603, 2582.521729, -24.157499, 63, 141, 255
-1523.598999, 2581.185791, -24.356352, 63, 141, 255
-1549.363159, 2568.002197, -14.954497, 63, 141, 255
-1556.126343, 2610.359131, -14.727397, 63, 141, 255
-1508.020142, 2561.893555, -16.91729, 63, 141, 255
-1532.386597, 2617.531982, -17.067389, 63, 141, 255
-1521.269409, 2563.063965, -16.222246, 63, 141, 255
-1501.663086, 2565.667725, -17.738335, 63, 141, 255
-1519.578003, 2582.664795, -24.710064, 63, 141, 255
-1549.128784, 2611.313965, -16.045683, 63, 141, 255
-1511.774048, 2590.388916, -22.98123, 63, 141, 255
-1502.199829, 2561.616943, -14.623589, 63, 141, 255
-1516.113159, 2595.993652, -20.431963, 63, 141, 255
-1550.622437, 2603.8396, -15.298711, 63, 141, 255
-1508.377197, 2625.343506, -36.009113, 63, 141, 255
-1504.484253, 2622.806885, -36.578793, 63, 141, 255
-1509.020142, 2565.956055, -16.502325, 63, 141, 255
-1523.94519, 2622.603027, -19.905302, 63, 141, 255
-1524.434937, 2601.897461, -22.664019, 63, 141, 255
-1528.575562, 2607.16626, -15.85086, 63, 141, 255
-1545.266235, 2604.751465, -17.071098, 63, 141, 255
-1513.584961, 2561.515381, -18.576836, 63, 141, 255
-1547.788086, 2560.958496, -15.563896, 63, 141, 255
-1556.44043, 2591.629639, -18.176176, 63, 141, 255
-1505.326416, 2614.993652, -4.644195, 63, 141, 255
-1531.138062, 2579.61084, -7.276494, 63, 141, 255
-1519.79126, 2546.40918, -20.760479, 63, 141, 255
-1529.277222, 2551.802246, -12.586944, 63, 141, 255
-1521.634155, 2543.077148, -29.570465, 63, 141, 255
-1525.260742, 2590.022461, -19.069414, 63, 141, 255
-1540.256836, 2597.319336, -20.612944, 63, 141, 255
-1532.07019, 2622.03418, -14.542803, 63, 141, 255
-1515.045166, 2617.831055, -33.628887, 63, 141, 255
-1505.662354, 2580.413086, -24.933941, 63, 141, 255
-1528.039673, 2618.55835, -17.443291, 63, 141, 255
-1506.03894, 2576.612305, -25.63592, 63, 141, 255
-1531.106079, 2621.12793, -16.459379, 63, 141, 255
-1531.104492, 2544.534912, -20.635185, 63, 141, 255
-1529.373291, 2615.175537, -17.688017, 63, 141, 255
-1526.188843, 2612.459961, -18.679571, 63, 141, 255
-1552.070923, 2596.345215, -19.004131, 63, 141, 255
-1530.302979, 2610.987305, -18.775763, 63, 141, 255
-1543.932617, 2551.771729, -18.447783, 63, 141, 255
-1560.068604, 2597.406006, -18.85601, 63, 141, 255
-1543.520142, 2556.133545, -16.832085, 63, 141, 255
-1536.58728, 2554.670166, -16.979277, 63, 141, 255
-1526.183472, 2612.202148, -18.379522, 63, 141, 255
-1525.133423, 2616.373291, -17.682354, 63, 141, 255
-1530.645874, 2611.272461, -18.608892, 63, 141, 255
-1540.25769, 2553.158447, -17.337652, 63, 141, 255
-1526.89978, 2621.817871, -16.603178, 63, 141, 255
-1519.488159, 2547.819336, -19.831938, 63, 141, 255
-1516.968628, 2590.070068, -17.588848, 63, 141, 255
-1511.435791, 2550.520996, -18.822271, 63, 141, 255
-1539.669312, 2607.968506, -15.802714, 63, 141, 255
-1521.617065, 2613.1521, -19.78875, 63, 141, 255
-1534.944336, 2596.220215, -18.604132, 63, 141, 255
-1533.444336, 2588.102295, -20.712286, 63, 141, 255
-1536.048218, 2600.253662, -19.080864, 63, 141, 255
-1509.367065, 2554.55835, -16.749199, 63, 141, 255
-1550.10376, 2611.106934, -18.621147, 63, 141, 255
-1533.717773, 2600.778809, -19.047295, 63, 141, 255
-1540.949829, 2567.801514, -16.188971, 63, 141, 255
-1530.981079, 2587.22876, -7.895879, 63, 141, 255
-1537.684937, 2564.438232, -14.746294, 63, 141, 255
-1520.943604, 2619.550537, -17.60606, 63, 141, 255
-1530.863159, 2562.317139, -15.055962, 63, 141, 255
-1528.09668, 2559.891357, -15.441826, 63, 141, 255
-1529.738159, 2592.177246, -16.926275, 63, 141, 255
-1549.952148, 2593.845215, -20.318291, 63, 141, 255
-1517.22644, 2617.419434, -12.549224, 63, 141, 255
-1521.631104, 2589.369385, -23.745831, 63, 141, 255
-1541.324829, 2592.696045, -18.267363, 63, 141, 255
-1518.655273, 2551.793701, -18.647808, 63, 141, 255
-1522.585815, 2550.689697, -18.664019, 63, 141, 255
-1546.187378, 2564.958496, -16.718096, 63, 141, 255
-1515.592041, 2549.863037, -19.052055, 63, 141, 255
-1534.196655, 2547.566162, -19.359625, 63, 141, 255
-1523.777954, 2547.158447, -19.558159, 63, 141, 255
-1554.934937, 2590.709961, -21.519415, 63, 141, 255
-1554.613892, 2576.302246, -22.208696, 63, 141, 255
-1553.404541, 2593.512451, -20.814434, 63, 141, 255
-1538.268555, 2587.349121, -20.721661, 63, 141, 255
-1540.298218, 2582.143555, -24.608793, 63, 141, 255
-1556.246704, 2603.045166, -22.902422, 63, 141, 255
-1554.427124, 2600.110107, -22.815117, 63, 141, 255
-1505.074097, 2586.061523, -23.173052, 63, 141, 255
-1552.803711, 2562.834229, -16.054155, 63, 141, 255
-1543.415405, 2618.199951, -17.801226, 63, 141, 255
-1517.296753, 2593.55835, -18.80772, 63, 141, 255
-1549.338135, 2561.191162, -15.793584, 63, 141, 255
-1540.766968, 2616.123291, -17.60462, 63, 141, 255
-1512.085815, 2597.559326, -22.837969, 63, 141, 255
-1549.877197, 2555.451416, -17.263628, 63, 141, 255
-1547.457642, 2571.420898, -23.888018, 63, 141, 255
-1543.801392, 2572.944336, -24.062773, 63, 141, 255
-1528.71936, 2599.882568, -19.800421, 63, 141, 255
-1549.017822, 2589.22876, -23.695415, 63, 141, 255
-1559.885742, 2593.431885, -23.216972, 63, 141, 255
-1547.451416, 2579.153076, -22.743023, 63, 141, 255
-1505.00293, 2563.950684, -16.838238, 63, 141, 255
-1538.91394, 2612.360107, -16.345318, 63, 141, 255
-1504.865479, 2566.968506, -19.196661, 63, 141, 255
-1519.443604, 2590.880371, -21.055376, 63, 141, 255
-1517.396729, 2541.222412, -20.590801, 63, 141, 255
-1520.931885, 2555.212402, -15.329253, 63, 141, 255
-1509.916992, 2606.407715, -25.426786, 63, 141, 255
-1515.506836, 2592.456787, -22.217314, 63, 141, 255
-1534.818604, 2581.193604, -25.454765, 63, 141, 255
-1535.529541, 2620.259277, -15.762187, 63, 141, 255
-1522.042847, 2599.044434, -17.758354, 63, 141, 255
-1514.953003, 2562.889648, -16.28089, 63, 141, 255
-1554.718628, 2614.876465, -17.79207, 63, 141, 255
-1559.016968, 2572.633545, -20.080961, 63, 141, 255
-1556.245117, 2603.192871, -18.014605, 63, 141, 255
-1515.767822, 2588.04126, -22.162115, 63, 141, 255
-1505.388062, 2605.120117, -25.297832, 63, 141, 255
-1501.927124, 2615.926514, -35.991802, 63, 141, 255
-1529.457642, 2586.513184, -23.851812, 63, 141, 255
-1515.66394, 2566.68042, -18.357428, 63, 141, 255
-1540.988159, 2608.634277, -14.934575, 63, 141, 255
-1504.588867, 2618.534912, -34.829475, 63, 141, 255
-1513.612305, 2604.082764, -23.570904, 63, 141, 255
-1501.580322, 2612.06543, -31.519415, 63, 141, 255
-1505.771729, 2608.208496, -29.852448, 63, 141, 255
-1542.051392, 2566.732666, -19.258085, 63, 141, 255
-1545.052124, 2610.741211, -18.548565, 63, 141, 255
-1514.078735, 2617.729492, -9.589824, 63, 141, 255
-1541.552979, 2592.643555, -16.512896, 63, 141, 255
-1538.137329, 2569.22168, -14.477983, 63, 141, 255
-1523.03186, 2607.64209, -16.243292, 63, 141, 255
-1545.170166, 2599.061523, -17.914654, 63, 141, 255
-1527.729492, 2555.220947, -16.029253, 63, 141, 255
-1551.933472, 2577.425537, -15.187407, 63, 141, 255
-1532.88501, 2604.657715, -23.466314, 63, 141, 255
-1548.179565, 2564.986572, -19.989752, 63, 141, 255
-1548.40686, 2582.302246, -15.826177, 63, 141, 255
-1524.152954, 2580.435059, -17.811602, 63, 141, 255
-1531.85144, 2618.155273, -15.95125, 63, 141, 255
-1540.383423, 2562.54126, -18.206963, 63, 141, 255
-1511.620972, 2586.038086, -17.311651, 63, 141, 255
-1530.295166, 2625.407715, -13.308452, 63, 141, 255
-1523.551392, 2599.44043, -17.931499, 63, 141, 255
-1507.989624, 2557.299072, -18.177105, 63, 141, 255
-1527.877197, 2544.911621, -20.376104, 63, 141, 255
-1534.47644, 2550.73584, -18.533354, 63, 141, 255
-1531.384155, 2605.141357, -35.53614, 63, 141, 255
-1507.206055, 2602.139648, -44.565388, 63, 141, 255
-1497.25061, 2594.270264, -48.775421, 63, 141, 255
-1516.783447, 2607.806152, -31.707478, 63, 141, 255
-1500.548218, 2575.608398, -40.585552, 63, 141, 255
-1512.307617, 2590.31543, -50.719585, 63, 141, 255
-1541.626343, 2578.360107, -20.56851, 63, 141, 255
-1558.764648, 2576.146729, -17.713408, 63, 141, 255
-1523.66394, 2586.921631, -22.740118, 63, 141, 255
-1510.00293, 2579.432617, -21.670635, 63, 141, 255
-1551.178711, 2616.750732, -13.01541, 63, 141, 255
-1629.78186, 2723.077881, -51.232086, 63, 141, 255
-1604.790405, 2720.588135, -33.623371, 63, 141, 255
-1629.893555, 2719.627197, -51.428181, 63, 141, 255
-1633.07251, 2721.631836, -51.27232, 63, 141, 255
-1615.982666, 2722.174805, -52.004696, 63, 141, 255
-1611.061523, 2724.75293, -51.153179, 63, 141, 255
-1622.425659, 2722.866943, -51.718197, 63, 141, 255
-1618.901367, 2721.0271, -52.799374, 63, 141, 255
-1611.830322, 2720.627197, -54.100838, 63, 141, 255
-1626.348999, 2721.181152, -51.545757, 63, 141, 255
-1626.619385, 2720.687256, -51.318024, 63, 141, 255
-1629.704468, 2723.252197, -51.648617, 63, 141, 255
-1622.536499, 2722.509277, -52.671955, 63, 141, 255
-1656.287354, 2711.591309, -32.253742, 63, 141, 255
-1607.78418, 2735.307617, -37.538433, 63, 141, 255
-1605.04126, 2720.627197, -33.784527, 63, 141, 255
-1608.013916, 2735.345947, -37.713875, 63, 141, 255
-1622.584229, 2722.43042, -51.082211, 63, 141, 255
-1613.490479, 2725.538086, -43.585724, 63, 141, 255
-1605.04126, 2720.627197, -33.784527, 63, 141, 255
-1613.85376, 2603.223389, -25.53709, 63, 141, 255
-1622.657593, 2591.102295, -23.334135, 63, 141, 255
-1609.02478, 2594.340576, -25.879425, 63, 141, 255
-1594.953003, 2596.050537, -24.462164, 63, 141, 255
-1596.305298, 2601.718506, -25.486284, 63, 141, 255
-1612.00293, 2608.610107, -28.777643, 63, 141, 255
-1631.062378, 2615.831787, 12.032539, 63, 141, 255
-1620.612305, 2617.658447, -19.144171, 63, 141, 255
-1617.69751, 2605.929443, 14.526778, 63, 141, 255
-1629.528687, 2627.852295, 12.950679, 63, 141, 255
-1591.328003, 2597.97168, -24.057257, 63, 141, 255
-1630.207642, 2599.29126, -25.946589, 63, 141, 255
-1596.66394, 2594.651367, -24.70064, 63, 141, 255
-1609.124878, 2593.724854, -23.421684, 63, 141, 255
-1598.406128, 2607.688232, -24.783037, 63, 141, 255
-1600.381836, 2599.975586, -25.197905, 63, 141, 255
-1636.122437, 2611.905273, 18.115816, 63, 141, 255
-1601.72644, 2593.574951, -24.661333, 63, 141, 255
-1614.452148, 2603.270996, -25.391607, 63, 141, 255
-1619.491211, 2600.299805, -25.587261, 63, 141, 255
-1623.839722, 2604.669434, -22.49185, 63, 141, 255
-1617.324829, 2601.571045, -25.624739, 63, 141, 255
-1605.005249, 2603.90918, -25.917608, 63, 141, 255
-1627.623291, 2614.801514, -15.828593, 63, 141, 255
-1637.629517, 2596.56543, -24.987066, 63, 141, 255
-1615.495117, 2608.563965, -29.316389, 63, 141, 255
-1613.303711, 2593.267822, -23.13377, 63, 141, 255
-1637.873291, 2607.729492, -22.592949, 63, 141, 255
-1602.128784, 2595.394287, -5.102935, 63, 141, 255
-1613.186523, 2589.320068, -23.234331, 63, 141, 255
-1631.995117, 2592.863037, -23.789873, 63, 141, 255
-1609.582642, 2599.292725, -26.141607, 63, 141, 255
-1619.682617, 2596.648193, -24.591337, 63, 141, 255
-1629.324829, 2594.438965, -23.968046, 63, 141, 255
-1613.153687, 2600.928711, -26.035847, 63, 141, 255
-1619.970947, 2599.959229, -25.30689, 63, 141, 255
-1632.466187, 2592.884277, -23.17144, 63, 141, 255
-1616.492065, 2598.552979, -25.50396, 63, 141, 255
-1634.016968, 2609.785889, 14.823458, 63, 141, 255
-1591.430298, 2600.895264, -22.777081, 63, 141, 255
-1594.434204, 2599.031982, -23.510332, 63, 141, 255
-1637.799805, 2628.591309, 18.545113, 63, 141, 255
-1625.687378, 2604.331055, -22.260771, 63, 141, 255
-1613.061523, 2606.594482, -27.870222, 63, 141, 255
-1614.285034, 2614.65918, 4.665571, 63, 141, 255
-1584.856079, 2599.356934, -23.117535, 63, 141, 255
-1584.177979, 2603.189697, -22.005865, 63, 141, 255
-1587.400635, 2605.568604, -20.80208, 63, 141, 255
-1615.528687, 2616.83667, 6.551704, 63, 141, 255
-1588.358398, 2598.559326, -23.11248, 63, 141, 255
-1622.951416, 2595.141357, -23.432035, 63, 141, 255
-1593.374023, 2603.14917, -24.953398, 63, 141, 255
-1607.877197, 2607.573975, -27.499689, 63, 141, 255
-1619.739624, 2603.567871, -26.890486, 63, 141, 255
-1625.614624, 2611.97876, -15.783989, 63, 141, 255
-1619.737305, 2593.409912, -22.944927, 63, 141, 255
-1626.620972, 2600.342773, -24.119902, 63, 141, 255
-1607.655273, 2610.758545, -23.774834, 63, 141, 255
-1636.825562, 2612.972412, -22.426201, 63, 141, 255
-1581.19043, 2609.250732, -22.113115, 63, 141, 255
-1629.309937, 2620.732666, 11.848922, 63, 141, 255
-1625.501343, 2604.019287, 11.880757, 63, 141, 255
-1622.184204, 2609.090576, 15.015694, 63, 141, 255
-1626.963135, 2612.485107, 14.05693, 63, 141, 255
-1623.389648, 2617.619385, 12.268209, 63, 141, 255
-1589.981812, 2603.142822, -8.60706, 63, 141, 255
-1621.754517, 2623.774902, 11.911812, 63, 141, 255
-1646.973267, 2602.332764, -23.035015, 63, 141, 255
-1581.057617, 2602.937256, -18.245903, 63, 141, 255
-1625.192017, 2615.734131, -14.387675, 63, 141, 255
-1617.183472, 2611.550537, -22.044683, 63, 141, 255
-1613.148315, 2589.29126, -23.269756, 63, 141, 255
-1635.00769, 2594.709961, -24.146513, 63, 141, 255
-1629.946655, 2623.926514, -9.429888, 63, 141, 255
-1591.236572, 2597.878662, -24.220171, 63, 141, 255
-1623.198242, 2598.202881, -24.529985, 63, 141, 255
-1606.418579, 2600.456787, -26.273664, 63, 141, 255
-1632.164673, 2595.451416, -25.891901, 63, 141, 255
-1630.924072, 2600.171631, -26.275885, 63, 141, 255
-1632.769409, 2609.580322, 14.836763, 63, 141, 255
-1593.677979, 2599.671631, -24.508551, 63, 141, 255
-1629.268555, 2597.684326, -25.330986, 63, 141, 255
-1610.564697, 2595.130371, -24.414726, 63, 141, 255
-1597.609985, 2598.224121, -24.991972, 63, 141, 255
-1597.943604, 2604.705322, -25.971052, 63, 141, 255
-1613.620972, 2613.261475, 6.628706, 63, 141, 255
-1605.196655, 2592.505371, -24.213652, 63, 141, 255
-1635.115479, 2604.588135, -22.510038, 63, 141, 255
-1603.419312, 2601.812256, -25.192705, 63, 141, 255
-1590.052979, 2608.020264, -20.554619, 63, 141, 255
-1623.274048, 2601.666992, -25.590801, 63, 141, 255
-1640.856079, 2597.980225, -25.553276, 63, 141, 255
-1625.809937, 2592.531982, -23.92774, 63, 141, 255
-1611.369385, 2604.486572, -23.563799, 63, 141, 255
-1643.991211, 2602.901367, -26.414631, 63, 141, 255
-1631.50061, 2616.426514, 15.384639, 63, 141, 255
-1620.71936, 2606.083496, -22.173979, 63, 141, 255
-1631.060791, 2614.72876, -16.572124, 63, 141, 255
-1577.982666, 2607.18335, -24.711699, 63, 141, 255
-1631.03186, 2602.945068, -24.120903, 63, 141, 255
-1606.748291, 2597.0271, -25.555717, 63, 141, 255
-1595.141235, 2607.687256, -23.191143, 63, 141, 255
-1617.637329, 2615.771729, -19.998394, 63, 141, 255
-1628.013916, 2619.83667, -12.378593, 63, 141, 255
-1616.713135, 2610.866943, 7.583076, 63, 141, 255
-1593.796753, 2615.594482, -6.498344, 63, 141, 255
-1624.195923, 2604.098389, 17.026754, 63, 141, 255
-1588.995972, 2611.773193, -6.485332, 63, 141, 255
-1639.057617, 2622.28418, 18.782589, 63, 141, 255
-1600.605347, 2602.368652, -4.574468, 63, 141, 255
-1632.68811, 2615.663086, -15.022563, 63, 141, 255
-1597.528687, 2604.352295, -33.535286, 63, 141, 255
-1618.362305, 2613.71167, -22.518974, 63, 141, 255
-1612.679565, 2594.89209, -17.083549, 63, 141, 255
-1603.236572, 2599.291992, -21.810406, 63, 141, 255
-1628.38501, 2616.56543, -22.793877, 63, 141, 255
-1623.348267, 2607.174805, -26.398298, 63, 141, 255
-1629.863892, 2609.467773, -28.451544, 63, 141, 255
-1619.441284, 2589.4646, -22.72813, 63, 141, 255
-1617.07019, 2660.08667, -16.02669, 63, 141, 255
-1625.192017, 2615.734131, -14.387675, 63, 141, 255
-1617.183472, 2611.550537, -22.044683, 63, 141, 255
-1634.980347, 2594.641357, -24.198126, 63, 141, 255
-1631.972534, 2592.896729, -23.671171, 63, 141, 255
-1602.342041, 2674.62085, -23.773735, 63, 141, 255
-1609.443604, 2599.22876, -26.189825, 63, 141, 255
-1629.91394, 2623.835693, -9.602666, 63, 141, 255
-1624.006836, 2678.57251, -22.741142, 63, 141, 255
-1598.634155, 2680.001465, -23.319023, 63, 141, 255
-1615.581909, 2683.302979, -21.860846, 63, 141, 255
-1599.627197, 2656.74292, -19.793804, 63, 141, 255
-1619.381104, 2596.831787, -24.436455, 63, 141, 255
-1595.283447, 2681.582764, -23.658575, 63, 141, 255
-1602.277954, 2678.412354, -23.092535, 63, 141, 255
-1622.99353, 2598.607666, -24.616655, 63, 141, 255
-1623.242798, 2642.872559, -12.09019, 63, 141, 255
-1601.680298, 2593.067871, -24.678595, 63, 141, 255
-1628.831055, 2594.474121, -24.122173, 63, 141, 255
-1629.691284, 2623.886475, -10.103887, 63, 141, 255
-1613.356079, 2600.474121, -26.279499, 63, 141, 255
-1606.304565, 2600.600586, -25.742903, 63, 141, 255
-1627.181885, 2669.99292, -18.438799, 63, 141, 255
-1595.47876, 2678.111572, -23.920172, 63, 141, 255
-1616.285034, 2598.567871, -24.766802, 63, 141, 255
-1595.365479, 2677.216309, -23.512554, 63, 141, 255
-1594.621704, 2596.342773, -25.178789, 63, 141, 255
-1608.488159, 2678.828857, -23.326567, 63, 141, 255
-1612.914673, 2600.185791, -25.560162, 63, 141, 255
-1631.749878, 2595.991943, -25.130547, 63, 141, 255
-1637.609985, 2668.357666, -21.189922, 63, 141, 255
-1648.137329, 2621.556152, -8.235332, 63, 141, 255
-1663.085815, 2628.981934, -7.51165, 63, 141, 255
-1659.488892, 2624.956055, -7.2804, 63, 141, 255
-1638.136597, 2628.127197, 17.113791, 63, 141, 255
-1651.10376, 2653.040527, -4.568389, 63, 141, 255
-1635.436523, 2632.606201, 12.085494, 63, 141, 255
-1662.386597, 2626.817871, -7.488384, 63, 141, 255
-1659.374878, 2631.872559, -7.170488, 63, 141, 255
-1640.052979, 2645.71167, -10.49937, 63, 141, 255
-1657.388916, 2620.996826, -8.570976, 63, 141, 255
-1659.544312, 2633.60376, -7.89688, 63, 141, 255
-1617.310791, 2649.103027, -10.771123, 63, 141, 255
-1627.196655, 2646.529541, -16.859159, 63, 141, 255
-1612.050659, 2612.220947, -28.822737, 63, 141, 255
-1597.365479, 2601.056152, -23.782158, 63, 141, 255
-1624.041992, 2635.087402, -15.035942, 63, 141, 255
-1653.114624, 2627.307617, -6.376275, 63, 141, 255
-1623.845093, 2640.813232, -15.847368, 63, 141, 255
-1613.510742, 2680.239014, -24.754498, 63, 141, 255
-1609.559204, 2610.387451, -28.183844, 63, 141, 255
-1609.946655, 2658.328857, -8.000175, 63, 141, 255
-1599.518555, 2596.694336, -24.850981, 63, 141, 255
-1621.747437, 2659.511475, -15.220415, 63, 141, 255
-1599.890503, 2603.513184, -24.970196, 63, 141, 255
-1612.895874, 2662.647461, -20.104692, 63, 141, 255
-1608.275635, 2590.614746, -24.70916, 63, 141, 255
-1637.717773, 2601.525635, -23.981035, 63, 141, 255
-1604.138062, 2642.299072, -16.498491, 63, 141, 255
-1655.96936, 2632.636475, -8.469462, 63, 141, 255
-1620.06311, 2640.918701, -16.273125, 63, 141, 255
-1640.508423, 2633.747559, -16.278936, 63, 141, 255
-1612.651367, 2666.317139, -20.899029, 63, 141, 255
-1624.120117, 2633.889648, -17.632671, 63, 141, 255
-1592.206055, 2614.157715, -18.06204, 63, 141, 255
-1592.918579, 2675.764648, -23.166973, 63, 141, 255
-1610.442749, 2635.304443, -14.534746, 63, 141, 255
-1600.814697, 2606.702881, -26.290802, 63, 141, 255
-1629.748291, 2636.568604, -17.599541, 63, 141, 255
-1654.693604, 2618.671631, -9.659892, 63, 141, 255
-1612.553711, 2633.618652, -15.923589, 63, 141, 255
-1609.570923, 2602.209961, -27.03089, 63, 141, 255
-1611.861572, 2684.102295, -22.224516, 63, 141, 255
-1633.867065, 2674.361572, -22.5158, 63, 141, 255
-1626.238892, 2596.144287, -24.38648, 63, 141, 255
-1606.362305, 2672.869385, -21.929522, 63, 141, 255
-1626.224854, 2636.723389, -17.575224, 63, 141, 255
-1599.536499, 2653.554443, -19.691046, 63, 141, 255
-1613.348267, 2596.728027, -24.114458, 63, 141, 255
-1596.338135, 2655.199951, -19.873297, 63, 141, 255
-1644.206055, 2599.489014, -26.253498, 63, 141, 255
-1664.059204, 2644.881836, -8.362724, 63, 141, 255
-1651.434204, 2656.4646, -8.099126, 63, 141, 255
-1642.790405, 2676.147461, -22.836357, 63, 141, 255
-1639.545898, 2678.577148, -22.63731, 63, 141, 255
-1599.836548, 2660.08667, -20.175884, 63, 141, 255
-1625.764648, 2643.731934, -15.76187, 63, 141, 255
-1618.811523, 2670.224121, -20.893755, 63, 141, 255
-1633.999023, 2598.342773, -25.794367, 63, 141, 255
-1627.638916, 2673.203857, -22.020414, 63, 141, 255
-1664.366211, 2641.484131, -8.300664, 63, 141, 255
-1643.806885, 2668.662354, -21.355669, 63, 141, 255
-1615.530273, 2668.619385, -22.102789, 63, 141, 255
-1664.626343, 2638.050537, -8.318461, 63, 141, 255
-1612.416992, 2669.83667, -21.043119, 63, 141, 255
-1616.045898, 2664.850586, -20.705498, 63, 141, 255
-1603.486572, 2598.457764, -25.444586, 63, 141, 255
-1653.174072, 2667.793701, -20.982012, 63, 141, 255
-1629.269409, 2630.929443, -17.832354, 63, 141, 255
-1613.901367, 2637.045898, -14.453178, 63, 141, 255
-1599.954468, 2643.156982, -18.437822, 63, 141, 255
-1594.946655, 2619.921631, -16.469707, 63, 141, 255
-1599.147461, 2676.456787, -23.740826, 63, 141, 255
-1596.036499, 2612.783447, -22.59915, 63, 141, 255
-1630.446655, 2678.827881, -21.89649, 63, 141, 255
-1611.716187, 2677.371826, -23.343267, 63, 141, 255
-1628.181885, 2666.125732, -21.630058, 63, 141, 255
-1658.429565, 2640.86084, -8.21231, 63, 141, 255
-1615.156128, 2675.716309, -22.648222, 63, 141, 255
-1629.65918, 2617.656982, -15.389556, 63, 141, 255
-1598.832642, 2683.427246, -22.78089, 63, 141, 255
-1593.316284, 2650.031982, -18.950201, 63, 141, 255
-1620.840454, 2683.491211, -22.481207, 63, 141, 255
-1604.156128, 2638.260742, -16.283232, 63, 141, 255
-1631.826416, 2664.200684, -20.535112, 63, 141, 255
-1628.91394, 2590.908447, -23.648687, 63, 141, 255
-1609.69043, 2651.393555, -17.293194, 63, 141, 255
-1655.039673, 2642.311523, -8.69478, 63, 141, 255
-1614.141235, 2640.562256, -15.033525, 63, 141, 255
-1640.049805, 2670.826416, -22.303495, 63, 141, 255
-1601.467773, 2632.739014, -15.615972, 63, 141, 255
-1607.954468, 2640.5896, -14.497075, 63, 141, 255
-1626.929565, 2649.982666, -15.983623, 63, 141, 255
-1644.143555, 2657.14917, -8.450127, 63, 141, 255
-1616.453003, 2591.606201, -22.677837, 63, 141, 255
-1623.595093, 2646.556152, -17.019732, 63, 141, 255
-1598.093628, 2634.592773, -15.763652, 63, 141, 255
-1631.324097, 2668.003662, -21.41287, 63, 141, 255
-1650.577148, 2624.481934, -8.568926, 63, 141, 255
-1642.00293, 2662.638916, -19.285112, 63, 141, 255
-1612.248291, 2673.48584, -21.743828, 63, 141, 255
-1617.653687, 2685.273193, -22.876738, 63, 141, 255
-1609.295898, 2658.224121, -19.115606, 63, 141, 255
-1604.664673, 2621.320068, -16.94776, 63, 141, 255
-1649.988892, 2630.630371, -10.190703, 63, 141, 255
-1600.934204, 2640.332764, -16.249371, 63, 141, 255
-1646.369385, 2632.127197, -11.646855, 63, 141, 255
-1616.012329, 2651.531006, -16.886747, 63, 141, 255
-1603.016235, 2670.799805, -22.695782, 63, 141, 255
-1623.709229, 2685.715576, -23.355719, 63, 141, 255
-1630.195923, 2606.387451, -22.915068, 63, 141, 255
-1596.561523, 2662.081787, -20.476835, 63, 141, 255
-1632.842041, 2630.945068, -19.157818, 63, 141, 255
-1613.357666, 2616.82251, -20.482769, 63, 141, 255
-1628.049072, 2684.030273, -20.72891, 63, 141, 255
-1596.516235, 2622.36792, -19.012091, 63, 141, 255
-1630.63501, 2640.270996, -15.734893, 63, 141, 255
-1642.96936, 2647.848389, -8.934771, 63, 141, 255
-1640.414673, 2641.664795, -13.553985, 63, 141, 255
-1613.823242, 2656.382568, -16.290142, 63, 141, 255
-1606.959961, 2614.213867, -19.483526, 63, 141, 255
-1648.328003, 2610.830322, -21.790068, 63, 141, 255
-1610.549072, 2626.844482, -14.879497, 63, 141, 255
-1621.834961, 2625.317871, -17.249956, 63, 141, 255
-1599.060791, 2627.65918, -10.799028, 63, 141, 255
-1595.69751, 2616.756836, -10.289067, 63, 141, 255
-1596.918579, 2635.60376, -11.575518, 63, 141, 255
-1640.559204, 2637.942139, -17.910551, 63, 141, 255
-1633.095093, 2655.110107, -11.280644, 63, 141, 255
-1638.174805, 2612.554443, -15.195513, 63, 141, 255
-1642.217773, 2610.592773, -16.657255, 63, 141, 255
-1617.299805, 2627.103027, -17.505522, 63, 141, 255
-1593.924805, 2640.856201, -22.833233, 63, 141, 255
-1622.895874, 2649.812256, -11.252373, 63, 141, 255
-1653.841187, 2648.481934, -5.877617, 63, 141, 255
-1659.816284, 2657.035889, -10.340166, 63, 141, 255
-1633.867798, 2658.4021, -9.003936, 63, 141, 255
-1628.051392, 2653.347412, -11.455254, 63, 141, 255
-1625.459961, 2682.395996, -17.433794, 63, 141, 255
-1647.075562, 2674.427246, -12.738774, 63, 141, 255
-1603.94751, 2678.187256, -19.41375, 63, 141, 255
-1614.942017, 2616.382568, 19.727949, 63, 141, 255
-1604.734253, 2599.39917, 6.565914, 63, 141, 255
-1654.059937, 2653.763916, -3.117339, 63, 141, 255
-1642.465454, 2642.121826, -7.388139, 63, 141, 255
-1648.912354, 2657.54834, -3.0221, 63, 141, 255
-1634.050659, 2610.189697, -24.232622, 63, 141, 255
-1656.789673, 2664.408447, -6.507109, 63, 141, 255
-1650.18811, 2644.756836, -8.402885, 63, 141, 255
-1620.630249, 2595.208496, -20.61314, 63, 141, 255
-1644.831055, 2642.22168, -6.77852, 63, 141, 255
-1649.578735, 2608.37085, -11.463188, 63, 141, 255
-1646.51001, 2648.445068, -7.815361, 63, 141, 255
-1598.208374, 2609.915527, -20.490288, 63, 141, 255
-1632.557617, 2615.553711, -19.372953, 63, 141, 255
-1616.472534, 2684.235107, -29.197809, 63, 141, 255
-1644.734985, 2624.56543, -6.253081, 63, 141, 255
-1637.464722, 2646.071045, -12.925298, 63, 141, 255
-1628.158447, 2634.098389, -15.981816, 63, 141, 255
-1644.99353, 2639.468506, -10.336455, 63, 141, 255
-1646.876343, 2610.210693, -19.657915, 63, 141, 255
-1638.302124, 2596.292725, -30.075861, 63, 141, 255
-1590.999878, 2639.24585, -19.460211, 63, 141, 255
-1572.40686, 2629.963135, -18.560919, 63, 141, 255
-1591.168579, 2635.511475, -19.157743, 63, 141, 255
-1586.963135, 2656.801514, -19.456865, 63, 141, 255
-1583.140503, 2669.653809, -22.218634, 63, 141, 255
-1586.895142, 2653.251465, -18.813408, 63, 141, 255
-1579.840454, 2667.761475, -22.100761, 63, 141, 255
-1580.799072, 2659.948242, -19.673809, 63, 141, 255
-1577.592773, 2658.474854, -18.366728, 63, 141, 255
-1580.881104, 2656.342041, -18.129961, 63, 141, 255
-1586.803711, 2652.773193, -18.650713, 63, 141, 255
-1571.026367, 2640.334229, -17.343925, 63, 141, 255
-1584.413086, 2638.598389, -20.239117, 63, 141, 255
-1590.181885, 2601.236572, -22.851347, 63, 141, 255
-1591.52478, 2597.097412, -23.039263, 63, 141, 255
-1591.074097, 2640.470215, -17.826275, 63, 141, 255
-1576.224854, 2612.432617, -20.40728, 63, 141, 255
-1571.707642, 2646.625732, -19.227301, 63, 141, 255
-1588.099854, 2638.554443, -17.405132, 63, 141, 255
-1568.135742, 2641.991211, -17.896612, 63, 141, 255
-1590.701416, 2644.141357, -17.448418, 63, 141, 255
-1575.227905, 2632.19751, -19.104376, 63, 141, 255
-1591.19043, 2637.426514, -24.980938, 63, 141, 255
-1589.19043, 2611.752197, -19.013384, 63, 141, 255
-1583.294312, 2605.20459, -20.12171, 63, 141, 255
-1590.720093, 2604.231934, -22.353594, 63, 141, 255
-1574.535767, 2639.258545, -18.051104, 63, 141, 255
-1576.176392, 2645.299805, -17.598564, 63, 141, 255
-1569.063843, 2631.456787, -18.612455, 63, 141, 255
-1573.620117, 2620.955322, -17.987164, 63, 141, 255
-1590.131104, 2658.571045, -19.835821, 63, 141, 255
-1571.467773, 2637.165527, -18.606401, 63, 141, 255
-1573.817749, 2642.856934, -17.049664, 63, 141, 255
-1573.459961, 2659.014648, -19.641314, 63, 141, 255
-1573.427979, 2624.587402, -18.199297, 63, 141, 255
-1578.520142, 2636.928711, -18.341215, 63, 141, 255
-1586.982666, 2660.3396, -20.042852, 63, 141, 255
-1586.788086, 2649.306152, -17.953569, 63, 141, 255
-1588.223267, 2624.69751, -15.237871, 63, 141, 255
-1581.483398, 2616.702881, -20.947271, 63, 141, 255
-1590.128784, 2662.059326, -20.563993, 63, 141, 255
-1574.936523, 2635.68335, -18.387505, 63, 141, 255
-1569.376343, 2627.871826, -18.227983, 63, 141, 255
-1589.789673, 2666.26709, -21.34334, 63, 141, 255
-1577.390503, 2661.656982, -20.253643, 63, 141, 255
-1574.46228, 2617.872559, -19.805254, 63, 141, 255
-1583.098267, 2673.411621, -23.063505, 63, 141, 255
-1584.679565, 2614.835693, -21.888945, 63, 141, 255
-1590.184937, 2617.22876, -16.039679, 63, 141, 255
-1581.704468, 2632.12793, -21.777105, 63, 141, 255
-1569.638916, 2618.963135, -21.374443, 63, 141, 255
-1569.689697, 2651.909912, -12.437578, 63, 141, 255
-1569.701416, 2643.661621, -11.615605, 63, 141, 255
-1581.348999, 2642.270264, -21.496758, 63, 141, 255
-1588.756836, 2659.845215, -32.671368, 63, 141, 255
-1577.549072, 2614.443604, -18.183378, 63, 141, 255
-1585.309937, 2659.031982, -18.763847, 63, 141, 255
-1609.324097, 2567.612305, -21.681377, 63, 141, 255
-1557.630249, 2613.58667, -15.147222, 63, 141, 255
-1572.540405, 2595.106934, -24.315411, 63, 141, 255
-1562.301392, 2608.61792, -23.604424, 63, 141, 255
-1586.862305, 2571.998291, -19.019438, 63, 141, 255
-1609.186523, 2569.219482, -27.00733, 63, 141, 255
-1620.378784, 2568.76001, -14.17332, 63, 141, 255
-1635.194336, 2587.51001, -23.093853, 63, 141, 255
-1613.410034, 2585.532715, -22.351202, 63, 141, 255
-1562.223267, 2596.2146, -25.849348, 63, 141, 255
-1569.051392, 2596.505371, -24.599516, 63, 141, 255
-1590.973267, 2580.028809, -24.970171, 63, 141, 255
-1576.28186, 2589.539795, -23.042803, 63, 141, 255
-1590.183472, 2579.859131, -20.578131, 63, 141, 255
-1573.34668, 2602.418701, -19.635601, 63, 141, 255
-1586.866211, 2575.643555, -40.502621, 63, 141, 255
-1623.644409, 2579.656006, -17.458427, 63, 141, 255
-1589.324097, 2591.297607, -24.030376, 63, 141, 255
-1630.122437, 2591.071777, 15.939937, 63, 141, 255
-1573.246704, 2610.428711, -19.529009, 63, 141, 255
-1640.540405, 2594.653076, -24.129814, 63, 141, 255
-1643.542847, 2590.334961, -24.075981, 63, 141, 255
-1612.744385, 2568.311523, -23.593315, 63, 141, 255
-1558.254517, 2613.176514, -17.751446, 63, 141, 255
-1586.792847, 2574.866211, -20.027128, 63, 141, 255
-1572.718628, 2583.457764, -24.971464, 63, 141, 255
-1572.655273, 2591.009277, -24.261528, 63, 141, 255
-1610.232666, 2578.639648, -25.17354, 63, 141, 255
-1600.320923, 2566.70459, -18.316729, 63, 141, 255
-1629.211548, 2583.748291, -23.030718, 63, 141, 255
-1575.22876, 2608.74292, -22.979912, 63, 141, 255
-1620.052979, 2574.248291, -25.988897, 63, 141, 255
-1635.185791, 2605.407715, 18.740353, 63, 141, 255
-1560.588867, 2607.024902, -18.903715, 63, 141, 255
-1575.099854, 2583.370117, -18.999346, 63, 141, 255
-1600.009155, 2564.903809, -13.828155, 63, 141, 255
-1631.799072, 2591.142822, -25.815313, 63, 141, 255
-1632.545898, 2578.567139, -24.700151, 63, 141, 255
-1588.739624, 2595.120117, -24.142462, 63, 141, 255
-1622.519409, 2587.692871, -22.692461, 63, 141, 255
-1579.426392, 2595.780273, -23.747686, 63, 141, 255
-1567.412354, 2597.802979, -19.872173, 63, 141, 255
-1585.801392, 2588.941162, -24.192558, 63, 141, 255
-1625.842773, 2588.868652, -23.649712, 63, 141, 255
-1582.463867, 2593.969482, -23.667974, 63, 141, 255
-1598.845947, 2591.458496, -24.494122, 63, 141, 255
-1602.116211, 2590.054443, -24.562334, 63, 141, 255
-1635.498291, 2590.931152, -22.964531, 63, 141, 255
-1582.448242, 2594.21167, -24.262066, 63, 141, 255
-1588.623291, 2594.628662, -23.559746, 63, 141, 255
-1641.24353, 2591.224854, -23.523809, 63, 141, 255
-1612.319336, 2567.4646, -22.470196, 63, 141, 255
-1638.359985, 2585.801514, -23.019537, 63, 141, 255
-1563.949829, 2615.131836, -21.269243, 63, 141, 255
-1569.048218, 2581.845215, -25.536455, 63, 141, 255
-1623.054565, 2579.717041, -24.908476, 63, 141, 255
-1632.199097, 2585.87793, -22.982841, 63, 141, 255
-1587.918579, 2577.963135, -25.427153, 63, 141, 255
-1582.891235, 2586.89209, -24.178789, 63, 141, 255
-1562.110718, 2603.10376, -24.681646, 63, 141, 255
-1566.392822, 2587.273193, -25.462578, 63, 141, 255
-1576.163086, 2593.312256, -23.202959, 63, 141, 255
-1571.301392, 2606.22876, -25.369463, 63, 141, 255
-1616.152222, 2572.364746, -25.672688, 63, 141, 255
-1568.537354, 2603.896729, -24.09893, 63, 141, 255
-1558.298218, 2610.914795, -17.907866, 63, 141, 255
-1594.713135, 2567.340576, -18.029181, 63, 141, 255
-1605.550659, 2567.709961, -14.808184, 63, 141, 255
-1599.008423, 2578.361572, -20.675322, 63, 141, 255
-1601.120117, 2587.160889, -45.106426, 63, 141, 255
-1611.277222, 2567.775635, -9.55042, 63, 141, 255
-1641.089722, 2590.835693, -19.990068, 63, 141, 255
-1565.277954, 2607.248291, -18.428154, 63, 141, 255
-1616.849854, 2575.931885, -25.961872, 63, 141, 255
-1585.866211, 2592.663086, -23.9627, 63, 141, 255
-1607.348999, 2576.437256, -25.254522, 63, 141, 255
-1632.424805, 2578.649902, -24.695463, 63, 141, 255
-1622.797485, 2587.636475, -22.684673, 63, 141, 255
-1585.648315, 2592.472412, -23.913652, 63, 141, 255
-1638.333374, 2593.326416, -23.238409, 63, 141, 255
-1586.138916, 2588.876465, -24.122393, 63, 141, 255
