X,Y,Z,R,G,B
-955.302917, 29.12361, 303.002075, 255, 237, 33
-951.223267, 29.325953, 321.398804, 255, 237, 33
-954.31073, 29.457983, 314.169708, 255, 237, 33
-949.176392, 18.29822, 284.089478, 255, 237, 33
-943.31781, 24.750563, 290.434021, 255, 237, 33
-948.31073, 30.572828, 317.0802, 255, 237, 33
-965.838867, 8.957984, 315.08078, 255, 237, 33
-963.211548, 23.49275, 320.949554, 255, 237, 33
-951.888123, 2.811891, 266.105072, 255, 237, 33
-958.720154, 30.725561, 303.652222, 255, 237, 33
-953.054504, 30.30525, 332.620483, 255, 237, 33
-925.09436, 20.877516, 285.368866, 255, 237, 33
-956.316223, 30.08103, 323.148407, 255, 237, 33
-928.425598, 24.691969, 317.831909, 255, 237, 33
-940.566223, 28.04314, 319.951935, 255, 237, 33
-949.423279, 21.157204, 285.581085, 255, 237, 33
-956.423279, 28.522827, 312.628693, 255, 237, 33
-951.619324, 29.652124, 312.901215, 255, 237, 33
-959.338867, 12.915797, 274.380157, 255, 237, 33
-953.924011, 30.535328, 307.524445, 255, 237, 33
-959.070129, 30.48728, 306.979584, 255, 237, 33
-958.711548, 22.245094, 291.85199, 255, 237, 33
-921.951355, 26.135717, 307.571411, 255, 237, 33
-956.81781, 28.616968, 312.508179, 255, 237, 33
-953.476379, 17.132204, 279.76889, 255, 237, 33
-953.807617, 9.215406, 267.005493, 255, 237, 33
-951.049011, 29.331812, 309.87738, 255, 237, 33
-948.445129, 28.499781, 312.060974, 255, 237, 33
-959.367798, 28.195875, 316.739716, 255, 237, 33
-947.865417, 28.01775, 309.038055, 255, 237, 33
-937.412292, 27.211889, 318.685638, 255, 237, 33
-934.242798, 27.627905, 297.880157, 255, 237, 33
-962.001404, 31.471655, 307.997101, 255, 237, 33
-947.924805, 0.197828, 263.626556, 255, 237, 33
-956.193542, 28.777124, 309.412201, 255, 237, 33
-944.033386, 31.301344, 306.338318, 255, 237, 33
-964.017761, 25.295876, 323.502045, 255, 237, 33
-957.788879, 30.297438, 321.079926, 255, 237, 33
-957.272461, 29.407593, 318.295532, 255, 237, 33
-965.866211, 21.741188, 288.344757, 255, 237, 33
-963.008423, 26.233765, 297.584351, 255, 237, 33
-957.220154, 20.743141, 286.037476, 255, 237, 33
-927.014648, 18.859938, 281.11496, 255, 237, 33
-927.385742, 26.019703, 307.012634, 255, 237, 33
-945.56543, 18.154079, 270.908325, 255, 237, 33
-949.326355, 25.31072, 295.03949, 255, 237, 33
-960.377136, 30.820484, 319.095551, 255, 237, 33
-951.87793, -31.849829, 268.192719, 255, 237, 33
-926.238098, 24.522829, 301.654999, 255, 237, 33
-924.782654, 26.413843, 308.485474, 255, 237, 33
-946.302917, 25.003298, 300.184204, 255, 237, 33
-952.108398, 25.803686, 299.183716, 255, 237, 33
-959.582642, 26.663452, 299.953644, 255, 237, 33
-949.774841, 26.265797, 297.836792, 255, 237, 33
-938.963074, 15.972048, 278.360779, 255, 237, 33
-956.170105, -22.266624, 266.253632, 255, 237, 33
-930.334961, 24.976345, 302.661011, 255, 237, 33
-965.677917, 7.512281, 267.628052, 255, 237, 33
-962.491211, 23.107595, 288.76532, 255, 237, 33
-941.587341, 26.933374, 313.581177, 255, 237, 33
-950.34906, 12.310719, 268.895477, 255, 237, 33
-939.331055, -10.224438, 265.193085, 255, 237, 33
-951.022461, -24.483812, 266.475952, 255, 237, 33
-953.524841, 17.309547, 272.202179, 255, 237, 33
-943.916992, 12.331422, 268.582397, 255, 237, 33
-944.209167, -25.503735, 265.400665, 255, 237, 33
-911.93573, 27.063452, 297.717712, 255, 237, 33
-925.671692, 22.961891, 334.315643, 255, 237, 33
-925.777161, -9.532641, 332.309052, 255, 237, 33
-906.799011, 25.752905, 293.49588, 255, 237, 33
-907.857605, 23.770094, 291.717163, 255, 237, 33
-931.700623, -20.298656, 264.828796, 255, 237, 33
-908.538879, 14.306813, 278.861267, 255, 237, 33
-916.544373, 25.629469, 294.304169, 255, 237, 33
-919.026367, -15.237719, 335.112671, 255, 237, 33
-923.778748, 17.551344, 274.142914, 255, 237, 33
-920.642761, 16.375563, 270.18631, 255, 237, 33
-924.540466, 0.537672, 264.405396, 255, 237, 33
-914.236511, 26.085718, 296.060669, 255, 237, 33
-911.734192, 20.476736, 283.324554, 255, 237, 33
-916.660767, 27.916967, 331.843536, 255, 237, 33
-911.12793, 25.124392, 292.03952, 255, 237, 33
-912.082642, 14.343142, 270.212585, 255, 237, 33
-911.93811, 27.299, 297.711639, 255, 237, 33
-923.385742, 23.191969, 336.223755, 255, 237, 33
-913.336548, 25.773609, 304.927032, 255, 237, 33
-913.689636, 25.022829, 290.165222, 255, 237, 33
-919.793579, 24.684156, 319.213257, 255, 237, 33
-936.589661, 15.26111, 255.355942, 255, 237, 33
-907.975586, 22.860329, 289.357697, 255, 237, 33
-910.054504, 22.118923, 287.635223, 255, 237, 33
-918.978699, 1.471266, 263.011566, 255, 237, 33
-909.817017, 27.390797, 303.741913, 255, 237, 33
-955.828735, 10.338843, 252.992798, 255, 237, 33
-906.517761, 28.766577, 309.597107, 255, 237, 33
-917.392029, 28.698608, 306.448273, 255, 237, 33
-910.016235, 13.713454, 276.24231, 255, 237, 33
-905.461548, 14.104469, 278.905975, 255, 237, 33
-910.265442, 16.849392, 271.59549, 255, 237, 33
-919.633423, 26.282593, 298.321564, 255, 237, 33
-923.251404, 9.158375, 266.882416, 255, 237, 33
-917.223267, 31.302906, 330.827087, 255, 237, 33
-906.634949, 19.856422, 283.875122, 255, 237, 33
-904.314636, 20.865408, 285.43161, 255, 237, 33
-915.937317, 24.520485, 288.434753, 255, 237, 33
-925.820129, -9.373266, 332.434448, 255, 237, 33
-923.340454, 26.784937, 327.059448, 255, 237, 33
-918.198242, 27.046265, 319.366089, 255, 237, 33
-919.302185, -16.483812, 325.055389, 255, 237, 33
-942.542786, 25.790796, 345.18573, 255, 237, 33
-918.117798, -19.309593, 331.158875, 255, 237, 33
-917.99823, 29.168921, 325.596527, 255, 237, 33
-942.274841, 27.12361, 338.939087, 255, 237, 33
-937.080261, 27.325171, 337.944061, 255, 237, 33
-905.709167, 27.669312, 297.836792, 255, 237, 33
-913.869324, 30.03689, 324.427826, 255, 237, 33
-915.21936, 28.297047, 301.559601, 255, 237, 33
-908.732605, 26.304859, 295.639923, 255, 237, 33
-915.613098, 15.486892, 274.225616, 255, 237, 33
-911.408386, 30.027906, 305.873474, 255, 237, 33
-909.87323, 24.457594, 293.612579, 255, 237, 33
-926.281067, 26.525171, 323.5578, 255, 237, 33
-917.220886, 25.295095, 303.298706, 255, 237, 33
-918.804504, 22.878298, 292.281708, 255, 237, 33
-917.31543, 1.080641, 265.545868, 255, 237, 33
-921.105286, 1.802516, 264.65506, 255, 237, 33
-909.116211, 27.395874, 311.022736, 255, 237, 33
-932.820923, 24.757986, 337.405243, 255, 237, 33
-922.932617, 24.327126, 322.411469, 255, 237, 33
-940.960754, -22.474438, 264.096771, 255, 237, 33
-910.397461, 7.565797, 268.820435, 255, 237, 33
-913.427185, 13.998219, 277.643402, 255, 237, 33
-939.22406, 15.931813, 253.634506, 255, 237, 33
-925.234192, 2.814234, 266.05188, 255, 237, 33
-902.417786, 25.652515, 297.055115, 255, 237, 33
-914.902954, 29.015406, 330.246948, 255, 237, 33
-916.877136, 25.852514, 297.259491, 255, 237, 33
-914.088867, 18.824781, 284.894806, 255, 237, 33
-913.960754, 29.815405, 321.442993, 255, 237, 33
-918.857605, 26.565796, 330.912292, 255, 237, 33
-923.042786, 23.198219, 333.297485, 255, 237, 33
-920.962341, 26.008375, 329.141327, 255, 237, 33
-903.609192, 18.039625, 283.342072, 255, 237, 33
-920.540466, 16.190407, 275.147247, 255, 237, 33
-913.237305, 24.580252, 288.071747, 255, 237, 33
-934.258423, 24.465017, 336.840759, 255, 237, 33
-926.235779, 20.852516, 339.331146, 255, 237, 33
-921.163086, 27.270094, 315.169403, 255, 237, 33
-918.170105, 26.750172, 333.884735, 255, 237, 33
-912.316223, 21.71736, 285.911224, 255, 237, 33
-915.066223, 22.025173, 286.884369, 255, 237, 33
-939.479492, 24.893923, 343.848511, 255, 237, 33
-920.400574, -13.40139, 329.37439, 255, 237, 33
-920.928711, 23.562283, 321.844818, 255, 237, 33
-917.056824, -21.017015, 327.400513, 255, 237, 33
-905.71936, 15.760329, 282.339935, 255, 237, 33
-922.693542, 23.554079, 321.345642, 255, 237, 33
-916.491211, 30.887281, 323.529633, 255, 237, 33
-920.306824, 22.53611, 325.281219, 255, 237, 33
-919.102173, 24.638845, 322.753021, 255, 237, 33
-934.562317, 27.627905, 340.000427, 255, 237, 33
-915.989685, 15.450172, 280.805542, 255, 237, 33
-920.34668, 28.289625, 301.052521, 255, 237, 33
-922.736511, 22.906424, 339.374481, 255, 237, 33
-911.926392, 25.637671, 300.971619, 255, 237, 33
-916.010742, 23.440016, 291.658783, 255, 237, 33
-912.857605, 22.867361, 288.484314, 255, 237, 33
-911.763123, 31.831421, 308.455353, 255, 237, 33
-908.606873, 32.340405, 310.04245, 255, 237, 33
-918.859192, 16.618923, 281.716003, 255, 237, 33
-915.062317, 26.349781, 304.991669, 255, 237, 33
-922.306824, 24.572828, 317.673706, 255, 237, 33
-923.96936, 27.241186, 330.244659, 255, 237, 33
-913.841248, 25.432985, 293.178894, 255, 237, 33
-906.207642, 27.996265, 303.71698, 255, 237, 33
-908.743591, 28.056421, 305.870453, 255, 237, 33
-911.337341, 13.840016, 281.063599, 255, 237, 33
-913.824036, 29.986891, 319.136597, 255, 237, 33
-919.668579, 10.238844, 268.409119, 255, 237, 33
-913.72406, 1.704859, 266.171478, 255, 237, 33
-915.703735, 1.797438, 268.052826, 255, 237, 33
-907.19281, 24.88611, 302.102875, 255, 237, 33
-922.932617, 24.327126, 322.411469, 255, 237, 33
-922.932617, 24.327126, 322.411469, 255, 237, 33
-914.449829, 32.103298, 309.74173, 255, 237, 33
-922.820923, 4.741969, 340.502045, 255, 237, 33
-904.631836, 28.648609, 306.077515, 255, 237, 33
-922.740417, 15.015798, 268.737183, 255, 237, 33
-915.207642, 15.894704, 270.989594, 255, 237, 33
-904.43811, 24.256813, 295.673309, 255, 237, 33
-914.479492, 26.456421, 298.990692, 255, 237, 33
-925.802917, -10.573266, 336.558136, 255, 237, 33
-918.544373, 23.793531, 292.962006, 255, 237, 33
-918.276367, 26.822437, 322.892059, 255, 237, 33
-916.40448, 17.400953, 283.399261, 255, 237, 33
-909.274841, 21.258375, 284.952484, 255, 237, 33
-917.668579, 28.949781, 328.332611, 255, 237, 33
-911.673279, 30.360327, 322.416473, 255, 237, 33
-904.759216, 22.168142, 288.067993, 255, 237, 33
-908.749817, 18.770094, 282.723969, 255, 237, 33
-916.450623, 30.213842, 320.168427, 255, 237, 33
-917.243591, 28.422047, 329.007935, 255, 237, 33
-916.026367, 31.604078, 326.338959, 255, 237, 33
-919.02948, 26.393141, 326.440765, 255, 237, 33
-937.384216, 25.260719, 340.863495, 255, 237, 33
-936.628723, 25.089235, 342.704529, 255, 237, 33
-935.570923, 24.457594, 345.524445, 255, 237, 33
-911.501404, 24.074392, 290.756805, 255, 237, 33
-931.188904, 25.383375, 336.608582, 255, 237, 33
-916.133423, 25.263454, 317.141296, 255, 237, 33
-906.986511, 20.716579, 286.736786, 255, 237, 33
-928.732605, 21.326735, 337.172699, 255, 237, 33
-917.275574, 26.37439, 300.099701, 255, 237, 33
-909.359985, 31.031422, 307.512146, 255, 237, 33
-910.683411, 22.513454, 290.770142, 255, 237, 33
-922.074829, -1.58225, 262.880829, 255, 237, 33
-904.018555, 23.455252, 292.895966, 255, 237, 33
-913.930298, 18.087282, 281.924835, 255, 237, 33
-911.981873, 24.374783, 304.222107, 255, 237, 33
-941.901367, 23.488064, 341.654816, 255, 237, 33
-923.595154, 3.991578, 266.168427, 255, 237, 33
-947.973267, 35.086891, 338.380402, 255, 237, 33
-918.400574, 17.113844, 271.833527, 255, 237, 33
-913.91156, 29.370874, 307.267517, 255, 237, 33
-920.839661, -18.032249, 334.175873, 255, 237, 33
-921.116211, -21.179516, 321.21994, 255, 237, 33
-946.871704, 33.751343, 341.161896, 255, 237, 33
-912.876404, 5.89275, 267.894562, 255, 237, 33
-917.350586, 14.556422, 269.560638, 255, 237, 33
-923.463074, 17.026344, 271.091156, 255, 237, 33
-919.213074, 17.50408, 286.042908, 255, 237, 33
-936.088074, -20.004515, 263.801849, 255, 237, 33
-915.977966, 7.1865, 265.992859, 255, 237, 33
-917.639648, 14.622438, 278.024384, 255, 237, 33
-875.059204, -35.578735, 265.728851, 255, 237, 33
-882.783386, 14.863454, 270.578979, 255, 237, 33
-872.856079, -17.580297, 264.928497, 255, 237, 33
-871.231079, -63.35569, 267.902679, 255, 237, 33
-877.999817, -32.489674, 266.601288, 255, 237, 33
-867.305298, -41.397877, 266.344025, 255, 237, 33
-887.370117, 8.27439, 267.241486, 255, 237, 33
-866.41156, 1.440016, 263.413269, 255, 237, 33
-901.81073, 20.960329, 287.302765, 255, 237, 33
-900.495911, 15.540016, 282.949829, 255, 237, 33
-890.741211, -48.502174, 262.754913, 255, 237, 33
-880.551392, 7.964625, 256.612579, 255, 237, 33
-879.872498, -20.716234, 265.637299, 255, 237, 33
-935.050598, -39.707642, 265.993835, 255, 237, 33
-855.088867, -34.186157, 266.270782, 255, 237, 33
-892.174011, -45.033813, 265.612823, 255, 237, 33
-902.134216, 15.382204, 270.429626, 255, 237, 33
-872.331055, -16.315844, 262.525085, 255, 237, 33
-895.516235, 20.524, 285.435394, 255, 237, 33
-918.027161, -29.567017, 267.294067, 255, 237, 33
-887.135742, 18.37361, 282.782349, 255, 237, 33
-928.395142, -53.605297, 266.994263, 255, 237, 33
-875.405273, -63.659595, 267.38266, 255, 237, 33
-884.209167, 16.195486, 273.865906, 255, 237, 33
-928.833435, -59.074047, 266.548523, 255, 237, 33
-867.824036, -36.7803, 266.771423, 255, 237, 33
-879.977173, -46.947094, 265.399597, 255, 237, 33
-882.431091, -39.065845, 267.038208, 255, 237, 33
-884.210754, 0.384937, 264.594269, 255, 237, 33
-881.485779, -13.967015, 258.211609, 255, 237, 33
-882.614685, 8.901734, 267.464813, 255, 237, 33
-911.803711, -10.907641, 266.095825, 255, 237, 33
-895.397461, -41.772877, 265.643433, 255, 237, 33
-912.832642, -19.460375, 265.670258, 255, 237, 33
-898.464661, 12.095485, 267.88913, 255, 237, 33
-942.567017, -37.64436, 266.516327, 255, 237, 33
-904.663086, 14.289626, 274.911163, 255, 237, 33
-906.804504, -1.200219, 265.846619, 255, 237, 33
-894.158386, -36.052563, 266.160583, 255, 237, 33
-898.793579, 17.943533, 280.127319, 255, 237, 33
-884.757629, -15.004125, 264.99823, 255, 237, 33
-889.341248, -29.060377, 265.884613, 255, 237, 33
-887.091248, -72.569756, 266.066498, 255, 237, 33
-906.287292, -74.008423, 266.954285, 255, 237, 33
-919.965454, -63.828735, 265.972839, 255, 237, 33
-883.386536, -43.847878, 266.057098, 255, 237, 33
-895.884949, 20.665407, 288.392548, 255, 237, 33
-901.418579, 19.171267, 284.811981, 255, 237, 33
-898.333435, 21.352125, 286.577423, 255, 237, 33
-884.34436, -45.785378, 264.172394, 255, 237, 33
-916.263855, -37.333035, 265.616302, 255, 237, 33
-912.477173, -41.322094, 263.929901, 255, 237, 33
-916.905273, -55.529907, 268.145935, 255, 237, 33
-880.18573, -67.389671, 265.816589, 255, 237, 33
-869.743591, -30.583424, 266.535034, 255, 237, 33
-912.081848, -55.580299, 267.048615, 255, 237, 33
-919.961548, -38.836548, 264.763855, 255, 237, 33
-915.149841, -0.672875, 263.640717, 255, 237, 33
-908.026367, 8.459547, 270.329865, 255, 237, 33
-869.027954, 2.755641, 264.155457, 255, 237, 33
-899.881836, 3.272438, 269.296112, 255, 237, 33
-890.398254, 2.069703, 265.881134, 255, 237, 33
-887.117004, -13.274828, 265.784393, 255, 237, 33
-873.475586, -32.195141, 266.682251, 255, 237, 33
-862.343567, -20.220531, 265.477081, 255, 237, 33
-912.832642, -19.460375, 265.670258, 255, 237, 33
-891.598267, -19.952562, 266.756226, 255, 237, 33
-917.251404, 0.498609, 260.249878, 255, 237, 33
-935.949829, -28.422094, 265.547394, 255, 237, 33
-933.938904, -40.2635, 266.18161, 255, 237, 33
-864.047485, -45.049049, 266.514343, 255, 237, 33
-878.955261, 14.590797, 279.319519, 255, 237, 33
-895.050598, -1.352563, 264.342407, 255, 237, 33
-907.899841, -4.915062, 264.339142, 255, 237, 33
-902.095886, 14.436892, 277.068298, 255, 237, 33
-901.40448, 4.121266, 267.337921, 255, 237, 33
-877.457642, -13.370921, 265.944763, 255, 237, 33
-860.956848, -19.787329, 266.433807, 255, 237, 33
-867.517029, -26.091627, 265.571716, 255, 237, 33
-903.238098, -12.010375, 266.4263, 255, 237, 33
-940.132629, -31.099829, 266.684509, 255, 237, 33
-897.03418, 15.275172, 271.466583, 255, 237, 33
-881.34668, -4.525218, 318.115204, 255, 237, 33
-934.874817, -57.621315, 268.277039, 255, 237, 33
-923.59198, -65.383034, 264.683563, 255, 237, 33
-885.138855, -48.95686, 263.274597, 255, 237, 33
-886.874817, -47.764675, 265.24646, 255, 237, 33
-881.52948, -45.76936, 264.819519, 255, 237, 33
-875.784973, 7.165406, 257.629913, 255, 237, 33
-914.959167, -23.055296, 329.837372, 255, 237, 33
-912.806091, -64.159599, 266.7789, 255, 237, 33
-918.958435, -59.878735, 267.67981, 255, 237, 33
-865.56311, 2.093922, 266.237976, 255, 237, 33
-890.384216, 5.063063, 267.791382, 255, 237, 33
-865.299011, 2.925953, 266.6716, 255, 237, 33
-880.213074, -67.314674, 265.796967, 255, 237, 33
-905.710754, -68.393974, 266.655701, 255, 237, 33
-883.788879, 18.725563, 283.917084, 255, 237, 33
-931.415466, -58.111938, 267.974213, 255, 237, 33
-938.492004, -46.518188, 266.916962, 255, 237, 33
-905.452942, -39.538502, 265.958221, 255, 237, 33
-884.861511, 8.920875, 257.140259, 255, 237, 33
-939.407654, -39.676785, 264.838104, 255, 237, 33
-880.37561, -0.581859, 265.321503, 255, 237, 33
-912.838867, -2.946313, 262.258667, 255, 237, 33
-880.306824, 15.665407, 273.016144, 255, 237, 33
-872.571716, 11.791968, 281.252289, 255, 237, 33
-868.207642, 4.606422, 267.40271, 255, 237, 33
-876.821716, 0.252125, 265.506866, 255, 237, 33
-935.050598, -39.707642, 265.993835, 255, 237, 33
-877.56543, 15.505251, 275.357056, 255, 237, 33
-895.545105, 15.657985, 279.385284, 255, 237, 33
-893.156067, 12.834157, 257.526245, 255, 237, 33
-879.251404, -15.522094, 265.574585, 255, 237, 33
-879.507629, -41.209988, 265.564636, 255, 237, 33
-857.285767, -13.497874, 266.458527, 255, 237, 33
-886.830261, 2.964625, 265.943298, 255, 237, 33
-882.614685, 8.901734, 267.464813, 255, 237, 33
-859.390442, -36.912331, 266.976288, 255, 237, 33
-882.132629, -32.347485, 266.691986, 255, 237, 33
-903.212341, -40.69397, 265.548126, 255, 237, 33
-892.752136, -4.211156, 262.321564, 255, 237, 33
-880.407654, 14.041188, 276.962006, 255, 237, 33
-858.931824, -30.676001, 266.474396, 255, 237, 33
-881.37561, -30.167017, 267.923279, 255, 237, 33
-891.189636, -13.686546, 265.835876, 255, 237, 33
-909.034973, -36.202564, 267.300995, 255, 237, 33
-879.892761, 15.365407, 270.08078, 255, 237, 33
-909.814636, 7.431422, 267.886108, 255, 237, 33
-927.700623, -36.126003, 266.217896, 255, 237, 33
-931.520142, -44.782642, 266.220398, 255, 237, 33
-898.938904, -45.798656, 266.346375, 255, 237, 33
-863.277161, -39.989285, 267.223511, 255, 237, 33
-902.486511, -0.092406, 265.937378, 255, 237, 33
-889.731873, -35.453346, 266.888306, 255, 237, 33
-941.71698, -41.990063, 266.503937, 255, 237, 33
-904.159973, -0.826781, 263.279907, 255, 237, 33
-908.999023, -22.572874, 266.594177, 255, 237, 33
-905.963074, 3.391188, 266.803436, 255, 237, 33
-882.139648, -34.231472, 267.080353, 255, 237, 33
-877.447449, -13.359202, 265.966522, 255, 237, 33
-877.457642, -13.370921, 265.944763, 255, 237, 33
-889.475586, 17.32361, 271.544403, 255, 237, 33
-857.198242, -26.967407, 267.85672, 255, 237, 33
-887.571716, 15.400954, 274.719208, 255, 237, 33
-897.44043, -23.479124, 267.061798, 255, 237, 33
-903.659973, -24.549828, 268.925659, 255, 237, 33
-917.257629, -17.109594, 264.862579, 255, 237, 33
-917.701355, -12.26311, 264.782745, 255, 237, 33
-889.231873, 10.250953, 258.317596, 255, 237, 33
-903.004517, -34.093578, 266.550903, 255, 237, 33
-883.447449, 14.95486, 278.988464, 255, 237, 33
-878.210754, 8.782594, 258.207062, 255, 237, 33
-919.697449, -66.114281, 264.998962, 255, 237, 33
-887.735779, 20.112673, 285.2453, 255, 237, 33
-915.152954, -64.836159, 265.266937, 255, 237, 33
-916.259949, -60.270142, 266.528259, 255, 237, 33
-925.139648, -59.833035, 267.275909, 255, 237, 33
-919.165466, -68.859596, 266.104706, 255, 237, 33
-921.313904, -60.366627, 265.951752, 255, 237, 33
-867.705261, 5.100563, 267.699921, 255, 237, 33
-888.381042, 2.625953, 266.160919, 255, 237, 33
-897.577148, 18.550955, 284.398315, 255, 237, 33
-917.313904, -66.270531, 264.031219, 255, 237, 33
-864.338074, 1.981031, 265.110443, 255, 237, 33
-870.559204, -36.446705, 267.353058, 255, 237, 33
-918.825623, -35.4053, 266.67038, 255, 237, 33
-876.502136, -66.262718, 265.969513, 255, 237, 33
-884.720886, 0.118531, 264.213013, 255, 237, 33
-897.37561, 15.51111, 274.394989, 255, 237, 33
-878.723267, -62.674438, 267.762146, 255, 237, 33
-939.855286, -39.959595, 264.409271, 255, 237, 33
-882.715454, -67.260376, 267.406036, 255, 237, 33
-874.870117, 7.467359, 268.399017, 255, 237, 33
-908.378723, -43.399048, 265.019989, 255, 237, 33
-880.134949, -28.254517, 267.653442, 255, 237, 33
-939.407654, -39.676785, 264.838104, 255, 237, 33
-883.177917, -23.341625, 266.95993, 255, 237, 33
-891.012329, -47.2803, 265.435272, 255, 237, 33
-897.540466, -42.055691, 263.482269, 255, 237, 33
-909.15918, -39.2635, 263.862335, 255, 237, 33
-922.879517, -41.14436, 265.646942, 255, 237, 33
-905.338074, -62.915455, 268.828156, 255, 237, 33
-879.444336, 2.9365, 266.820648, 255, 237, 33
-935.050598, -39.707642, 265.993835, 255, 237, 33
-871.747498, 4.759157, 267.107025, 255, 237, 33
-911.333435, -1.399828, 264.952515, 255, 237, 33
-902.049805, 12.846267, 275.184204, 255, 237, 33
-905.847473, 11.065016, 269.019226, 255, 237, 33
-879.894348, -64.574829, 266.025421, 255, 237, 33
-898.686523, -37.938892, 265.900238, 255, 237, 33
-878.78186, -37.091625, 266.293091, 255, 237, 33
-875.888855, 3.911891, 266.828094, 255, 237, 33
-883.120911, 2.988844, 266.412933, 255, 237, 33
-883.924805, -1.321703, 264.697144, 255, 237, 33
-886.240417, -40.178738, 266.842255, 255, 237, 33
-905.258423, -38.867409, 265.132782, 255, 237, 33
-914.056091, -27.59358, 267.372986, 255, 237, 33
-911.330261, -37.564674, 266.051392, 255, 237, 33
-893.641235, -27.74983, 267.249207, 255, 237, 33
-893.571716, -30.824438, 266.209351, 255, 237, 33
-895.742798, -15.350609, 266.291718, 255, 237, 33
-885.393555, 12.424781, 268.483673, 255, 237, 33
-931.133423, -25.736938, 265.118134, 255, 237, 33
-905.239685, -31.332642, 268.549927, 255, 237, 33
-883.312317, -12.617407, 266.875427, 255, 237, 33
-903.032654, -25.015062, 268.271942, 255, 237, 33
-933.25061, -35.59866, 266.514008, 255, 237, 33
-853.165466, -38.590065, 266.629364, 255, 237, 33
-915.046692, -12.741235, 266.079468, 255, 237, 33
-899.25531, -2.328344, 264.502319, 255, 237, 33
-885.884949, -34.093578, 266.684784, 255, 237, 33
-878.014648, -32.963112, 267.053162, 255, 237, 33
-891.417786, -39.954906, 266.349579, 255, 237, 33
-899.75061, -8.748656, 264.611359, 255, 237, 33
-913.979492, -36.870533, 267.451355, 255, 237, 33
-886.150574, 11.197828, 269.017273, 255, 237, 33
-890.726379, 14.432594, 275.169617, 255, 237, 33
-857.979492, -27.84358, 267.591339, 255, 237, 33
-885.68573, 16.419704, 277.133148, 255, 237, 33
-856.460754, -36.035378, 267.383026, 255, 237, 33
-907.738098, -15.087718, 266.445038, 255, 237, 33
-906.168579, -36.883816, 269.127319, 255, 237, 33
-890.120911, -24.77639, 266.587433, 255, 237, 33
-894.812317, -27.310766, 266.802704, 255, 237, 33
-846.428711, 18.372438, 327.391968, 255, 237, 33
-878.539673, 28.130249, 333.599396, 255, 237, 33
-855.413879, 22.918142, 292.324585, 255, 237, 33
-876.903748, 28.766968, 327.108337, 255, 237, 33
-862.053711, 31.248219, 316.141052, 255, 237, 33
-847.607605, 17.993141, 284.930115, 255, 237, 33
-861.28186, 25.629469, 304.335083, 255, 237, 33
-838.048279, -0.508813, 263.092255, 255, 237, 33
-896.008423, 26.083765, 307.96698, 255, 237, 33
-844.874817, 16.936892, 334.528992, 255, 237, 33
-848.577942, 22.127516, 313.414398, 255, 237, 33
-869.285767, 21.030642, 287.178345, 255, 237, 33
-848.799805, 17.012281, 315.038116, 255, 237, 33
-853.631836, 20.668922, 280.714783, 255, 237, 33
-865.00293, 18.890799, 283.196503, 255, 237, 33
-848.44281, 21.991579, 304.014282, 255, 237, 33
-846.273254, 19.50486, 310.779083, 255, 237, 33
-891.845886, 25.634546, 297.767609, 255, 237, 33
-866.06311, 16.449392, 339.688019, 255, 237, 33
-875.282654, 29.038452, 326.529633, 255, 237, 33
-870.94281, 20.186892, 287.620483, 255, 237, 33
-864.359985, 30.317749, 305.166473, 255, 237, 33
-873.484192, 13.751345, 267.299042, 255, 237, 33
-860.320923, 10.426344, 254.834641, 255, 237, 33
-847.331848, -31.532251, 267.525574, 255, 237, 33
-897.938904, 27.045485, 305.145966, 255, 237, 33
-875.43573, 17.640408, 276.450623, 255, 237, 33
-849.634949, -24.836937, 267.50058, 255, 237, 33
-852.126404, 21.577908, 291.125458, 255, 237, 33
-850.727966, 16.021267, 324.051483, 255, 237, 33
-856.442017, 27.66814, 314.639252, 255, 237, 33
-843.138855, 17.56111, 339.066986, 255, 237, 33
-835.124817, 23.445875, 307.871307, 255, 237, 33
-901.584167, 28.487671, 317.787811, 255, 237, 33
-887.881836, 29.647827, 326.515076, 255, 237, 33
-844.481079, 23.447048, 310.765106, 255, 237, 33
-873.730286, 29.025953, 334.162201, 255, 237, 33
-845.382629, 17.905251, 337.382111, 255, 237, 33
-856.767761, 26.732203, 323.863159, 255, 237, 33
-843.717773, 13.354079, 341.133881, 255, 237, 33
-864.325623, 17.445875, 280.63324, 255, 237, 33
-829.592773, 21.682594, 303.173126, 255, 237, 33
-870.038086, 25.902515, 291.932648, 255, 237, 33
-872.897461, 15.449, 276.610321, 255, 237, 33
-880.763855, 21.287283, 289.71048, 255, 237, 33
-887.427185, 25.88689, 300.403931, 255, 237, 33
-829.419373, 25.951344, 290.266876, 255, 237, 33
-875.551392, 24.903297, 290.442719, 255, 237, 33
-839.81311, 2.993531, 266.920197, 255, 237, 33
-878.234985, 29.297827, 310.528687, 255, 237, 33
-857.740417, 23.723219, 336.18869, 255, 237, 33
-831.19281, 3.693922, 267.573517, 255, 237, 33
-900.605286, 26.931812, 320.601929, 255, 237, 33
-864.653748, 8.32986, 267.805298, 255, 237, 33
-842.506042, 21.619703, 306.140472, 255, 237, 33
-881.017029, 29.899389, 311.544525, 255, 237, 33
-859.916199, 26.366186, 306.556732, 255, 237, 33
-823.299011, 16.476736, 285.657562, 255, 237, 33
-856.87793, 14.47361, 277.593719, 255, 237, 33
-898.627136, 26.440405, 297.296967, 255, 237, 33
-896.109985, 26.475561, 296.191437, 255, 237, 33
-867.528748, 30.44314, 335.459106, 255, 237, 33
-843.169373, 16.713844, 338.883881, 255, 237, 33
-841.852966, 17.463844, 330.558868, 255, 237, 33
-866.867004, 25.414625, 338.050903, 255, 237, 33
-860.00061, 29.592749, 320.536346, 255, 237, 33
-861.138855, 27.465796, 293.467072, 255, 237, 33
-871.074036, 30.707983, 329.202606, 255, 237, 33
-854.983398, 25.086111, 329.467407, 255, 237, 33
-885.566223, 28.315796, 328.669708, 255, 237, 33
-852.492004, 25.234549, 326.854828, 255, 237, 33
-838.454529, 26.486109, 307.130585, 255, 237, 33
-883.258423, 28.683765, 330.310822, 255, 237, 33
-850.69281, 16.564627, 281.047058, 255, 237, 33
-843.293579, 18.950563, 301.666046, 255, 237, 33
-870.246704, 23.950172, 337.085388, 255, 237, 33
-876.27948, 26.032593, 321.194214, 255, 237, 33
-858.895142, 19.152906, 280.85965, 255, 237, 33
-845.725586, 20.537283, 316.522888, 255, 237, 33
-899.264648, 29.916578, 316.617371, 255, 237, 33
-871.21698, 28.584156, 320.727264, 255, 237, 33
-897.986511, 26.032984, 313.553497, 255, 237, 33
-893.139648, 25.15486, 322.752625, 255, 237, 33
-866.803711, 29.666967, 306.708282, 255, 237, 33
-886.534973, 24.963064, 295.563263, 255, 237, 33
-856.523254, 26.070484, 327.636841, 255, 237, 33
-832.697449, 3.558375, 266.862, 255, 237, 33
-838.489685, 25.490408, 315.143677, 255, 237, 33
-862.991211, 26.775953, 298.71698, 255, 237, 33
-861.431091, 18.644705, 282.265015, 255, 237, 33
-878.584961, 25.52986, 301.156342, 255, 237, 33
-864.008423, 23.32947, 322.246368, 255, 237, 33
-900.491211, 23.744314, 293.173523, 255, 237, 33
-884.069336, 28.171656, 308.397186, 255, 237, 33
-842.575623, 4.297047, 267.573669, 255, 237, 33
-848.681824, 22.22361, 288.55365, 255, 237, 33
-840.305298, 22.072439, 287.000519, 255, 237, 33
-851.081055, 26.397047, 302.391785, 255, 237, 33
-866.208435, 18.634939, 271.318878, 255, 237, 33
-879.447449, 26.791967, 328.00766, 255, 237, 33
-852.269348, 13.851344, 276.889343, 255, 237, 33
-835.278748, -0.099047, 262.381317, 255, 237, 33
-881.369324, 28.318531, 324.407349, 255, 237, 33
-860.401367, 20.47361, 286.898773, 255, 237, 33
-864.25061, 19.54822, 286.829468, 255, 237, 33
-869.06781, 25.477907, 325.013702, 255, 237, 33
-889.343567, 24.865408, 307.275024, 255, 237, 33
-875.050598, 16.522047, 270.299286, 255, 237, 33
-867.588074, 15.503688, 268.631622, 255, 237, 33
-869.559204, 16.120094, 252.571701, 255, 237, 33
-839.954529, 3.069703, 266.818878, 255, 237, 33
-884.820129, 28.152906, 325.345673, 255, 237, 33
-893.816223, 23.027126, 292.571991, 255, 237, 33
-841.21936, 17.39822, 325.22937, 255, 237, 33
-845.745117, 17.136501, 340.057556, 255, 237, 33
-846.071716, 18.002127, 286.953247, 255, 237, 33
-852.958435, 21.605251, 335.164032, 255, 237, 33
-888.090454, 29.070093, 321.504364, 255, 237, 33
-888.960754, 27.3365, 329.424927, 255, 237, 33
-850.638123, 17.727516, 321.320435, 255, 237, 33
-879.224792, 28.08728, 322.215027, 255, 237, 33
-858.62793, 26.709156, 315.594696, 255, 237, 33
-850.645935, 18.309547, 324.58139, 255, 237, 33
-854.639648, 21.572439, 335.311798, 255, 237, 33
-846.209167, 18.456032, 324.622345, 255, 237, 33
-852.631836, 21.789236, 320.46106, 255, 237, 33
-872.156067, 27.116577, 325.932587, 255, 237, 33
-837.206055, 24.0865, 296.521423, 255, 237, 33
-847.973267, 17.579861, 320.224243, 255, 237, 33
-852.31543, 22.691969, 332.411804, 255, 237, 33
-882.97168, 28.830641, 327.412476, 255, 237, 33
-836.804504, 26.252125, 327.113403, 255, 237, 33
-857.590454, 22.049782, 290.744019, 255, 237, 33
-859.214661, 20.588844, 286.099945, 255, 237, 33
-849.805298, 20.063845, 286.451019, 255, 237, 33
-856.241211, 18.480251, 282.562225, 255, 237, 33
-859.021667, 19.533377, 283.521759, 255, 237, 33
-892.988098, 32.207592, 309.896362, 255, 237, 33
-848.518555, 16.328299, 325.669159, 255, 237, 33
-847.376404, 8.701735, 315.817261, 255, 237, 33
-839.350586, 17.626736, 333.954041, 255, 237, 33
-839.802185, 17.01111, 333.188446, 255, 237, 33
-851.361511, 24.070875, 309.95224, 255, 237, 33
-884.831848, 26.415796, 302.171112, 255, 237, 33
-879.245117, 25.942358, 320.396179, 255, 237, 33
-847.088074, 22.003298, 295.79071, 255, 237, 33
-899.077942, 26.945093, 300.080658, 255, 237, 33
-855.477173, 17.251345, 280.298279, 255, 237, 33
-861.811523, 24.532986, 323.713959, 255, 237, 33
-860.752136, 27.343922, 335.036011, 255, 237, 33
-850.995911, 15.70486, 326.766479, 255, 237, 33
-845.495117, 22.682985, 289.037781, 255, 237, 33
-855.03656, 6.004078, 260.553833, 255, 237, 33
-827.162292, 23.186892, 289.101349, 255, 237, 33
-875.886536, 28.64275, 305.74295, 255, 237, 33
-836.376404, 13.391189, 270.289429, 255, 237, 33
-881.577942, 23.870485, 318.622253, 255, 237, 33
-880.814636, 27.390015, 331.938263, 255, 237, 33
-888.359985, 23.772438, 290.962738, 255, 237, 33
-872.907654, 28.247437, 328.397186, 255, 237, 33
-855.164673, 15.457204, 274.086761, 255, 237, 33
-877.59906, 16.109549, 271.647003, 255, 237, 33
-825.667786, 24.564236, 288.22757, 255, 237, 33
-844.349792, 18.486891, 285.585541, 255, 237, 33
-864.164673, 14.112282, 275.39856, 255, 237, 33
-881.169373, 25.829468, 302.415222, 255, 237, 33
-846.152954, 3.519703, 267.379486, 255, 237, 33
-874.65686, 12.887282, 254.555405, 255, 237, 33
-884.311523, 28.967749, 325.141785, 255, 237, 33
-877.850586, 23.112282, 292.264862, 255, 237, 33
-871.566223, 25.07361, 300.865936, 255, 237, 33
-897.781067, 23.351736, 291.278351, 255, 237, 33
-869.780273, 28.316578, 308.218842, 255, 237, 33
-855.642761, 22.54822, 339.922974, 255, 237, 33
-828.21698, 22.071657, 299.820282, 255, 237, 33
-870.238892, 27.432592, 311.316132, 255, 237, 33
-880.510742, 26.235718, 332.348328, 255, 237, 33
-888.752136, 23.968924, 293.983765, 255, 237, 33
-833.595886, 21.09783, 300.497253, 255, 237, 33
-875.767761, 28.854858, 329.494354, 255, 237, 33
-875.290466, 27.098219, 311.306122, 255, 237, 33
-854.532654, 6.896266, 266.861908, 255, 237, 33
-865.680298, 8.534547, 257.729706, 255, 237, 33
-895.06311, 12.034547, 326.93222, 255, 237, 33
-857.360779, 7.229469, 258.968445, 255, 237, 33
-861.022461, 14.345876, 275.408966, 255, 237, 33
-849.883423, -29.268579, 267.592865, 255, 237, 33
-893.509216, 26.377125, 306.247437, 255, 237, 33
-829.618591, 21.874783, 290.452026, 255, 237, 33
-864.691223, 14.400954, 267.913269, 255, 237, 33
-856.072449, 13.416188, 269.192993, 255, 237, 33
-902.562317, 26.439625, 309.125214, 255, 237, 33
-833.240417, 7.777125, 267.412476, 255, 237, 33
-876.549011, 21.534157, 288.52063, 255, 237, 33
-878.139648, 30.166967, 331.706146, 255, 237, 33
-877.723267, 16.41033, 271.594818, 255, 237, 33
-853.274048, -15.880687, 265.092255, 255, 237, 33
-873.181824, 16.818922, 270.556671, 255, 237, 33
-860.304504, 11.965015, 266.816528, 255, 237, 33
-833.155273, 14.950172, 286.519867, 255, 237, 33
-872.738892, 15.474001, 267.928925, 255, 237, 33
-862.759216, 29.384937, 307.840851, 255, 237, 33
-894.727173, 28.027906, 309.904419, 255, 237, 33
-868.436523, 10.810328, 259.381683, 255, 237, 33
-878.141235, 14.317751, 255.860626, 255, 237, 33
-857.075623, 8.697437, 256.31546, 255, 237, 33
-872.772461, 14.056813, 258.049347, 255, 237, 33
-864.631042, 17.391579, 253.681564, 255, 237, 33
-856.830261, 9.84275, 253.512482, 255, 237, 33
-865.664673, 8.652125, 257.735199, 255, 237, 33
-870.41156, 13.706032, 256.727325, 255, 237, 33
-872.092773, 15.561501, 253.646606, 255, 237, 33
-867.433411, 12.806422, 255.101242, 255, 237, 33
-891.545898, 24.907595, 294.874603, 255, 237, 33
-899.416992, 25.047829, 295.331573, 255, 237, 33
-894.607605, 26.223999, 314.044403, 255, 237, 33
-888.244324, 21.048611, 287.897247, 255, 237, 33
-852.330261, 21.572828, 331.925629, 255, 237, 33
-893.821716, 22.941969, 289.557159, 255, 237, 33
-849.47406, 21.247829, 289.908722, 255, 237, 33
-829.993591, 19.871267, 309.291687, 255, 237, 33
-844.504517, 17.407595, 331.678925, 255, 237, 33
-882.245911, 27.465406, 321.429382, 255, 237, 33
-877.277161, 26.358765, 321.645538, 255, 237, 33
-888.364685, 27.005249, 323.86615, 255, 237, 33
-850.634949, 14.671267, 336.366241, 255, 237, 33
-841.503723, 17.457985, 327.651947, 255, 237, 33
-876.56073, 26.695484, 324.082947, 255, 237, 33
-850.21936, 18.37986, 318.542572, 255, 237, 33
-845.491211, 19.274782, 302.780457, 255, 237, 33
-900.34198, 25.740406, 326.127655, 255, 237, 33
-843.542786, 18.093142, 323.450562, 255, 237, 33
-843.482605, 18.522047, 299.123871, 255, 237, 33
-845.924011, 18.557203, 321.872925, 255, 237, 33
-843.351379, 18.464235, 320.734589, 255, 237, 33
-854.802917, 25.046658, 316.849548, 255, 237, 33
-831.394348, 20.041189, 307.42038, 255, 237, 33
-881.059998, 18.801344, 282.568451, 255, 237, 33
-847.668579, 15.777516, 335.324646, 255, 237, 33
-886.046692, 29.525562, 331.525177, 255, 237, 33
-871.149841, 30.597437, 333.686157, 255, 237, 33
-848.006042, 15.781423, 338.120819, 255, 237, 33
-867.808411, 16.132204, 274.22113, 255, 237, 33
-853.022461, 22.548611, 335.289886, 255, 237, 33
-842.768555, 17.838844, 336.202179, 255, 237, 33
-873.933411, 31.819702, 331.210571, 255, 237, 33
-851.972473, 20.591579, 288.639771, 255, 237, 33
-854.281067, 20.65486, 286.801453, 255, 237, 33
-876.133423, 17.043142, 285.258667, 255, 237, 33
-829.968567, 28.291187, 294.729034, 255, 237, 33
-825.244324, 20.183376, 312.194611, 255, 237, 33
-827.997498, 19.154079, 313.47821, 255, 237, 33
-845.714661, 18.985329, 319.186554, 255, 237, 33
-878.927185, 28.868921, 336.615997, 255, 237, 33
-884.337341, 25.654469, 319.636017, 255, 237, 33
-856.577942, 20.496656, 285.05545, 255, 237, 33
-864.208435, 19.476345, 286.957214, 255, 237, 33
-855.017029, 21.332205, 287.818817, 255, 237, 33
-863.318542, 21.490017, 288.718384, 255, 237, 33
-858.245911, 23.751345, 293.217163, 255, 237, 33
-844.446716, 23.009939, 309.782928, 255, 237, 33
-878.293579, 28.082203, 330.723175, 255, 237, 33
-866.414673, 12.961501, 282.22702, 255, 237, 33
-877.944336, 26.596266, 304.315063, 255, 237, 33
-890.352966, 21.443922, 282.954926, 255, 237, 33
-871.734985, 15.593532, 285.946808, 255, 237, 33
-894.102966, 27.303686, 300.730591, 255, 237, 33
-867.920898, 16.763063, 273.960419, 255, 237, 33
-853.762329, 26.128296, 324.683685, 255, 237, 33
-832.348267, 19.198219, 310.294617, 255, 237, 33
-884.84198, 25.775953, 299.163116, 255, 237, 33
-893.637329, 26.534155, 297.992462, 255, 237, 33
-883.858398, 24.019314, 294.729675, 255, 237, 33
-891.113098, 23.03611, 291.316284, 255, 237, 33
-856.568542, 20.877516, 284.969666, 255, 237, 33
-855.199829, 15.26697, 277.994415, 255, 237, 33
-859.710754, 26.43103, 324.941925, 255, 237, 33
-856.995117, 27.339233, 320.078827, 255, 237, 33
-838.116211, 24.350172, 321.076111, 255, 237, 33
-840.978699, 22.157595, 316.012177, 255, 237, 33
-843.680298, 21.705641, 294.102753, 255, 237, 33
-871.02948, 16.271658, 274.812439, 255, 237, 33
-829.709961, 4.268141, 266.481171, 255, 237, 33
-881.710754, 19.402517, 285.654816, 255, 237, 33
-833.259949, 1.68025, 263.717865, 255, 237, 33
-882.674805, 20.182594, 288.383575, 255, 237, 33
-833.617004, 3.050953, 266.137421, 255, 237, 33
-841.247498, 19.599392, 300.162567, 255, 237, 33
-843.483398, 21.41033, 287.090424, 255, 237, 33
-842.062317, 19.31072, 283.804535, 255, 237, 33
-852.137329, 20.299002, 342.361176, 255, 237, 33
-873.206848, 21.939627, 289.205505, 255, 237, 33
-853.142761, 21.284548, 285.586212, 255, 237, 33
-903.720154, 29.854078, 309.887726, 255, 237, 33
-848.323242, 20.345877, 298.886932, 255, 237, 33
-886.06781, 23.625174, 292.924042, 255, 237, 33
-850.831848, 22.693142, 296.154083, 255, 237, 33
-853.53186, 25.250174, 303.921844, 255, 237, 33
-882.138123, 25.707594, 301.099701, 255, 237, 33
-875.876404, 27.095875, 308.965515, 255, 237, 33
-873.381042, 28.819702, 307.45282, 255, 237, 33
-867.109985, 26.224781, 304.464386, 255, 237, 33
-870.188904, 25.640015, 303.659515, 255, 237, 33
-896.713867, 24.143141, 293.565369, 255, 237, 33
-833.736511, 10.4615, 282.820435, 255, 237, 33
-858.765442, 25.450172, 340.244568, 255, 237, 33
-841.151367, 24.30525, 311.357208, 255, 237, 33
-847.348267, 1.66775, 265.425751, 255, 237, 33
-861.454529, 29.527515, 313.59964, 255, 237, 33
-874.309204, 25.142361, 294.956024, 255, 237, 33
-844.257629, 23.91736, 291.138855, 255, 237, 33
-883.641235, 28.522047, 333.18158, 255, 237, 33
-861.662292, 3.309938, 266.847504, 255, 237, 33
-871.291992, 24.65447, 296.762421, 255, 237, 33
-873.658386, 16.090406, 337.476837, 255, 237, 33
-829.592773, 3.852516, 267.324097, 255, 237, 33
-863.477966, 29.765797, 308.497284, 255, 237, 33
-866.109985, 22.339235, 290.906342, 255, 237, 33
-901.579529, 23.325563, 290.795349, 255, 237, 33
-895.06311, 12.034547, 326.93222, 255, 237, 33
-866.910767, 19.643532, 285.348572, 255, 237, 33
-865.170105, 26.836109, 303.755981, 255, 237, 33
-890.709167, 23.536892, 305.08493, 255, 237, 33
-872.643555, 27.656813, 309.535431, 255, 237, 33
-862.713867, 25.559938, 301.81897, 255, 237, 33
-892.829529, 25.322048, 301.677704, 255, 237, 33
-864.495911, 13.909157, 277.354858, 255, 237, 33
-836.407654, 21.643141, 301.384399, 255, 237, 33
-852.503723, 15.060719, 280.021271, 255, 237, 33
-869.708435, 21.884548, 289.930756, 255, 237, 33
-855.974792, 28.177906, 306.887878, 255, 237, 33
-842.888855, -30.028736, 268.523956, 255, 237, 33
-827.367004, 13.524001, 286.390106, 255, 237, 33
-831.836548, 11.77986, 286.448853, 255, 237, 33
-851.084961, 7.456812, 341.046509, 255, 237, 33
-867.268555, 12.234157, 268.078644, 255, 237, 33
-854.523254, 28.679859, 309.749725, 255, 237, 33
-832.542786, 8.894703, 282.456635, 255, 237, 33
-876.356079, 19.729078, 339.372742, 255, 237, 33
-824.454529, 10.132203, 268.147339, 255, 237, 33
-827.669373, 41.947048, 300.646851, 255, 237, 33
-850.396667, 15.262672, 345.7435, 255, 237, 33
-830.308411, -0.302953, 263.042175, 255, 237, 33
-815.166199, 19.49275, 281.713074, 255, 237, 33
-826.88031, 15.445876, 335.222107, 255, 237, 33
-845.313904, 15.479079, 255.065552, 255, 237, 33
-824.97168, 2.899781, 267.520691, 255, 237, 33
-847.533386, 15.161891, 253.070831, 255, 237, 33
-823.340454, 32.529079, 287.074554, 255, 237, 33
-827.491211, 41.892361, 300.483032, 255, 237, 33
-843.479492, 17.257986, 341.873871, 255, 237, 33
-821.832642, 35.489235, 286.548218, 255, 237, 33
-821.230286, 16.109158, 271.838318, 255, 237, 33
-819.067017, 2.990016, 269.361786, 255, 237, 33
-827.658386, 14.327517, 269.082397, 255, 237, 33
-860.481873, 16.163454, 250.36058, 255, 237, 33
-820.117004, 16.022438, 282.169769, 255, 237, 33
-827.897461, 39.084156, 297.306671, 255, 237, 33
-827.274048, 31.423609, 294.795258, 255, 237, 33
-813.96698, 20.593924, 284.036652, 255, 237, 33
-823.408386, 34.453297, 290.494751, 255, 237, 33
-824.613098, 1.929859, 264.919769, 255, 237, 33
-828.319336, 31.99353, 320.322632, 255, 237, 33
-856.026367, 15.349001, 251.50354, 255, 237, 33
-825.198242, 11.490406, 268.666626, 255, 237, 33
-844.829529, 15.241969, 252.078537, 255, 237, 33
-827.549011, 36.910328, 295.943298, 255, 237, 33
-825.638855, 30.123999, 292.736694, 255, 237, 33
-841.799805, 16.837282, 342.490509, 255, 237, 33
-846.253723, 17.885719, 343.116241, 255, 237, 33
-839.152954, 16.677908, 341.28064, 255, 237, 33
-833.059204, 18.463453, 334.171478, 255, 237, 33
-840.468567, 18.494703, 338.655151, 255, 237, 33
-831.365417, 43.132202, 302.182983, 255, 237, 33
-827.087341, 1.368531, 266.147095, 255, 237, 33
-819.885742, 21.773611, 283.692169, 255, 237, 33
-817.740417, 26.900171, 286.983765, 255, 237, 33
-857.999023, 26.06814, 343.784149, 255, 237, 33
-822.903748, 12.598219, 270.128754, 255, 237, 33
-820.470154, 12.828298, 269.877899, 255, 237, 33
-840.288086, 16.342751, 350.019165, 255, 237, 33
-848.859192, 16.065016, 356.199554, 255, 237, 33
-827.863098, 17.338064, 340.81604, 255, 237, 33
-839.488892, 16.951345, 344.213806, 255, 237, 33
-850.826355, 15.096267, 348.634552, 255, 237, 33
-842.114685, 17.022438, 345.221405, 255, 237, 33
-839.790466, 17.137281, 346.978149, 255, 237, 33
-834.199829, 17.197439, 344.150757, 255, 237, 33
-838.177185, 15.425563, 355.191254, 255, 237, 33
-843.614685, 17.59783, 354.170929, 255, 237, 33
-845.883423, 17.216188, 352.351044, 255, 237, 33
-827.963867, 16.082985, 344.371918, 255, 237, 33
-853.213074, 21.470877, 347.928162, 255, 237, 33
-848.645935, 17.836111, 353.554047, 255, 237, 33
-848.938904, 16.372047, 355.131958, 255, 237, 33
-826.477966, 36.300953, 321.806976, 255, 237, 33
-834.082642, 16.539236, 342.179169, 255, 237, 33
-845.581848, 17.673611, 349.540131, 255, 237, 33
-846.824036, 17.489626, 358.314331, 255, 237, 33
-840.745117, 16.670095, 352.838257, 255, 237, 33
-842.56311, 17.403688, 348.116547, 255, 237, 33
-852.683411, 23.043142, 358.749542, 255, 237, 33
-833.776367, 17.927126, 346.781525, 255, 237, 33
-827.718567, 14.726735, 348.704437, 255, 237, 33
-848.870117, 16.147438, 356.077026, 255, 237, 33
-825.280273, 16.829861, 338.98114, 255, 237, 33
-854.433411, 26.254858, 346.16037, 255, 237, 33
-856.602966, 23.400564, 352.070892, 255, 237, 33
-859.646667, 26.659937, 353.334595, 255, 237, 33
-842.740417, 16.351345, 358.878845, 255, 237, 33
-833.091248, 16.791578, 350.060974, 255, 237, 33
-837.40918, 15.790797, 349.306671, 255, 237, 33
-848.191223, 17.459547, 350.814667, 255, 237, 33
-847.912292, 17.438845, 347.872437, 255, 237, 33
-843.893555, 17.560329, 344.811127, 255, 237, 33
-850.855286, 16.455252, 352.459808, 255, 237, 33
-836.988098, 15.493141, 346.317749, 255, 237, 33
-879.283386, 26.378296, 340.371613, 255, 237, 33
-852.668579, 23.045095, 358.645386, 255, 237, 33
-843.463074, 17.043922, 354.015167, 255, 237, 33
-842.324036, 16.230642, 345.47937, 255, 237, 33
-848.881042, 16.228689, 356.377075, 255, 237, 33
-855.768555, 22.91111, 347.310394, 255, 237, 33
-858.768555, 25.762671, 348.522339, 255, 237, 33
-861.668579, 28.084547, 349.793915, 255, 237, 33
-828.620911, 25.620874, 359.978699, 255, 237, 33
-826.874817, 27.882984, 350.340546, 255, 237, 33
-861.011536, 26.643141, 375.613251, 255, 237, 33
-827.44281, 34.857594, 366.637238, 255, 237, 33
-827.842773, 35.290798, 359.296478, 255, 237, 33
-826.306091, 11.042359, 380.978851, 255, 237, 33
-841.053711, 14.955251, 387.812775, 255, 237, 33
-841.294373, 15.015798, 387.954041, 255, 237, 33
-850.424805, 16.634939, 363.221771, 255, 237, 33
-859.434998, 25.409548, 386.198212, 255, 237, 33
-850.259216, 14.008376, 394.253052, 255, 237, 33
-827.950623, 35.275951, 363.459167, 255, 237, 33
-826.760742, 35.109936, 351.766632, 255, 237, 33
-828.300598, 21.983767, 350.663849, 255, 237, 33
-826.390442, 11.110719, 380.603485, 255, 237, 33
-842.566223, 15.72361, 364.787384, 255, 237, 33
-840.321716, 24.422438, 358.001099, 255, 237, 33
-826.653748, 30.491968, 346.839569, 255, 237, 33
-826.613098, 24.980251, 362.624115, 255, 237, 33
-863.87561, 25.722437, 385.240082, 255, 237, 33
-852.738098, 20.895876, 373.452362, 255, 237, 33
-852.067017, 17.699781, 380.110199, 255, 237, 33
-829.027161, 26.144312, 364.489105, 255, 237, 33
-826.449829, 24.650953, 346.807831, 255, 237, 33
-856.992798, 25.781813, 378.396942, 255, 237, 33
-857.640442, 26.863844, 371.14743, 255, 237, 33
-838.209961, 13.467751, 388.829803, 255, 237, 33
-858.849792, 26.593531, 375.593292, 255, 237, 33
-851.44043, 14.163063, 390.626404, 255, 237, 33
-826.541992, 35.56736, 347.196472, 255, 237, 33
-826.897461, 11.71775, 364.277435, 255, 237, 33
-860.679504, 28.239624, 358.047638, 255, 237, 33
-826.249023, 34.407593, 357.362427, 255, 237, 33
-823.617798, 36.57478, 351.000122, 255, 237, 33
-828.00293, 18.851736, 376.549927, 255, 237, 33
-835.321716, 14.530251, 388.374146, 255, 237, 33
-853.326355, 20.459547, 384.815643, 255, 237, 33
-842.106079, 18.169313, 391.014282, 255, 237, 33
-827.697449, 33.420094, 363.941925, 255, 237, 33
-828.394348, 36.259937, 359.713806, 255, 237, 33
-825.865417, 33.565796, 358.165985, 255, 237, 33
-827.727966, 19.55525, 369.446381, 255, 237, 33
-850.299011, 11.254469, 382.564545, 255, 237, 33
-852.512329, 21.354469, 373.965515, 255, 237, 33
-852.34436, 18.752516, 388.033966, 255, 237, 33
-844.957642, 16.670095, 363.395721, 255, 237, 33
-854.681091, 18.429861, 388.488892, 255, 237, 33
-842.484985, 16.725563, 362.240448, 255, 237, 33
-857.77948, 23.920095, 381.9953, 255, 237, 33
-850.303711, 17.349392, 376.485474, 255, 237, 33
-861.677917, 27.965796, 382.603973, 255, 237, 33
-840.826355, 22.217751, 359.675018, 255, 237, 33
-825.343567, 21.171658, 374.299438, 255, 237, 33
-826.075623, 13.571657, 371.823364, 255, 237, 33
-854.422485, 27.322046, 360.870209, 255, 237, 33
-849.061523, 13.291579, 387.107391, 255, 237, 33
-827.267761, 28.93025, 353.114532, 255, 237, 33
-826.371704, 25.116579, 347.926239, 255, 237, 33
-858.244324, 27.173609, 361.348083, 255, 237, 33
-824.640442, 11.009156, 354.276642, 255, 237, 33
-855.633423, 25.520094, 370.05423, 255, 237, 33
-860.199036, 23.453299, 403.746124, 255, 237, 33
-861.961548, 22.640799, 401.307495, 255, 237, 33
-826.489685, 36.63728, 369.683289, 255, 237, 33
-839.222473, 14.318532, 395.988861, 255, 237, 33
-838.278748, 16.87908, 403.499298, 255, 237, 33
-823.571716, 53.622047, 371.710541, 255, 237, 33
-825.758423, 37.755642, 393.965271, 255, 237, 33
-824.78418, 48.782986, 357.699554, 255, 237, 33
-845.209961, 21.832205, 412.349121, 255, 237, 33
-826.963074, 32.112671, 396.819305, 255, 237, 33
-838.751404, 18.889235, 404.804321, 255, 237, 33
-841.523254, 20.359938, 405.733429, 255, 237, 33
-838.447449, 14.59861, 411.684967, 255, 237, 33
-831.356079, 15.990407, 389.292084, 255, 237, 33
-828.350586, 47.403297, 337.227631, 255, 237, 33
-826.40918, 39.562672, 360.451874, 255, 237, 33
-836.088074, 12.29314, 390.867065, 255, 237, 33
-826.983398, 38.056423, 378.425629, 255, 237, 33
-825.284973, 38.17947, 395.543976, 255, 237, 33
-823.914673, 47.294312, 344.590424, 255, 237, 33
-826.504517, 16.031033, 390.281342, 255, 237, 33
-854.930298, 21.173611, 400.074585, 255, 237, 33
-823.761536, 37.893139, 383.895538, 255, 237, 33
-825.708435, 38.879078, 393.76474, 255, 237, 33
-829.919373, 14.587282, 388.165131, 255, 237, 33
-853.968567, 18.440798, 395.514984, 255, 237, 33
-827.21698, 12.518531, 402.293243, 255, 237, 33
-857.593567, 22.476736, 401.823517, 255, 237, 33
-857.197449, 22.815407, 396.757111, 255, 237, 33
-842.522461, 17.71072, 398.600677, 255, 237, 33
-844.206848, 20.925955, 406.731873, 255, 237, 33
-853.859985, 20.606813, 407.762299, 255, 237, 33
-826.055298, 35.084156, 390.321564, 255, 237, 33
-827.352966, 33.174389, 392.978455, 255, 237, 33
-859.722473, 25.317751, 393.44281, 255, 237, 33
-864.352173, 26.177124, 391.983032, 255, 237, 33
-843.129517, 19.207985, 401.259308, 255, 237, 33
-857.572449, 23.607595, 396.904877, 255, 237, 33
