X,Y,Z,R,G,B
-1378.213135, 2151.199951, 418.165283, 148, 142, 131
-1370.26001, 2150.988037, 426.808319, 122, 106, 83
-1373.694336, 2150.044434, 430.267578, 134, 120, 98
-1365.599854, 2151.96167, 418.733734, 99, 96, 88
-1378.183472, 2151.76001, 416.037659, 136, 132, 121
-1381.545898, 2149.911621, 424.167236, 105, 90, 69
-1368.381836, 2151.163818, 425.998749, 92, 76, 55
-1370.542847, 2151.029541, 428.81958, 121, 106, 82
-1372.463867, 2150.919434, 429.640137, 122, 106, 83
-1377.783447, 2151.099121, 428.022522, 123, 108, 83
-1377.279541, 2151.405273, 423.942047, 115, 99, 77
-1371.968628, 2151.29834, 425.588715, 104, 87, 66
-1374.456055, 2150.864014, 430.474426, 113, 98, 76
-1381.948242, 2151.4021, 431.644257, 95, 79, 57
-1381.59668, 2151.239014, 429.562958, 120, 106, 83
-1370.796753, 2151.702148, 416.993164, 135, 140, 139
-1378.597534, 2151.722412, 420.269104, 124, 111, 89
-1376.63501, 2151.569336, 419.48877, 116, 106, 88
-1366.857666, 2150.789795, 417.407288, 145, 147, 146
-1371.549805, 2151.167725, 423.52951, 127, 112, 89
-1376.215454, 2151.524902, 415.295258, 109, 111, 105
-1371.592773, 2151.866943, 420.119202, 90, 78, 60
-1378.267822, 2151.225586, 418.1604, 148, 142, 131
-1372.359985, 2151.419434, 413.219238, 143, 128, 108
-1376.356079, 2151.196777, 417.425446, 156, 152, 143
-1372.595947, 2151.907715, 415.78302, 124, 126, 121
-1363.434937, 2151.455322, 417.940826, 151, 146, 135
-1368.488892, 2150.395996, 416.093811, 118, 125, 123
-1364.606812, 2151.238037, 416.203674, 134, 120, 98
-1379.177979, 2150.7146, 427.031952, 144, 129, 107
-1370.39978, 2151.006836, 426.86792, 122, 107, 84
-1379.411499, 2151.616211, 421.737946, 147, 132, 111
-1372.140503, 2150.890381, 427.59024, 122, 106, 82
-1373.677979, 2149.915527, 430.066315, 134, 120, 98
-1367.345947, 2150.355225, 423.746155, 122, 107, 84
-1369.782593, 2151.582764, 424.758392, 107, 91, 69
-1379.207642, 2151.566162, 424.737701, 110, 95, 74
-1380.258423, 2151.463135, 418.912018, 125, 116, 102
-1375.277222, 2150.36084, 425.002747, 110, 95, 76
-1378.602173, 2151.105225, 422.338104, 122, 106, 80
-1367.578735, 2152.083496, 419.549561, 126, 113, 98
-1379.466187, 2151.54126, 426.757172, 120, 105, 81
-1376.052979, 2150.910889, 429.193573, 124, 109, 85
-1368.595093, 2151.011475, 428.031342, 121, 107, 83
-1374.098267, 2150.669434, 428.418701, 119, 104, 78
-1368.829468, 2150.616943, 422.339752, 131, 115, 92
-1375.781128, 2150.943604, 427.13385, 122, 106, 81
-1380.167847, 2150.549805, 420.95993, 132, 117, 94
-1374.610718, 2151.360107, 418.673401, 123, 117, 106
-1365.81311, 2150.983398, 420.936188, 110, 95, 72
-1369.052124, 2151.530273, 418.266937, 155, 150, 138
-1372.880249, 2149.728027, 423.925049, 133, 119, 96
-1373.902954, 2162.605225, 421.645355, 159, 143, 127
-1376.867798, 2149.804443, 453.968262, 109, 93, 72
-1380.431885, 2150.693604, 434.882721, 118, 103, 79
-1374.52478, 2149.672607, 446.975647, 127, 111, 89
-1375.420166, 2149.431152, 437.577637, 109, 93, 73
-1370.008423, 2149.576416, 441.237305, 112, 96, 72
-1375.348267, 2149.110107, 441.65567, 130, 115, 94
-1371.415405, 2150.665527, 449.639496, 96, 81, 62
-1371.85376, 2149.171631, 442.056061, 130, 114, 94
-1382.699829, 2151.631836, 456.403137, 88, 73, 52
-1372.994385, 2149.209961, 434.693695, 110, 94, 68
-1371.867065, 2150.247559, 455.716614, 88, 72, 52
-1372.588135, 2148.995117, 460.361176, 115, 100, 79
-1382.662354, 2149.604492, 451.176025, 118, 103, 79
-1383.687378, 2149.100586, 445.746429, 118, 103, 78
-1383.616211, 2149.709961, 443.780273, 87, 73, 53
-1370.982666, 2149.041992, 433.904053, 111, 95, 68
-1376.22876, 2147.273193, 456.971649, 136, 122, 102
-1372.970093, 2150.07959, 448.298828, 118, 103, 84
-1380.811523, 2151.17334, 436.869598, 88, 72, 53
-1380.911499, 2149.724854, 450.409515, 111, 96, 74
-1378.928711, 2151.264648, 436.096191, 119, 103, 82
-1384.802124, 2150.295898, 449.937958, 96, 81, 59
-1370.859985, 2149.52417, 449.493073, 102, 87, 68
-1382.788086, 2151.0271, 441.502197, 127, 112, 91
-1381.111572, 2152.231201, 455.503143, 80, 65, 45
-1369.316284, 2150.395996, 448.681366, 101, 86, 67
-1369.235718, 2151.270996, 432.021454, 96, 80, 58
-1375.951416, 2148.771729, 445.702118, 116, 101, 75
-1374.817017, 2150.679443, 432.562561, 119, 103, 79
-1377.234253, 2150.262451, 455.995667, 82, 67, 46
-1375.052979, 2149.718506, 435.476227, 118, 103, 81
-1381.102173, 2149.341309, 454.467773, 103, 87, 66
-1368.00769, 2147.50293, 449.631836, 134, 120, 100
-1375.420898, 2151.041992, 439.640778, 112, 95, 67
-1385.984985, 2149.528076, 456.851288, 109, 93, 73
-1383.084229, 2151.538818, 458.332825, 105, 89, 65
-1370.238892, 2149.24292, 457.145325, 118, 103, 80
-1384.366211, 2151.247559, 457.180756, 105, 90, 67
-1381.81311, 2149.256104, 444.931396, 121, 106, 83
-1383.901367, 2149.182617, 447.778168, 120, 105, 83
-1370.261597, 2149.542725, 441.30307, 120, 105, 82
-1375.020142, 2150.726318, 448.923187, 107, 92, 72
-1380.803711, 2151.528809, 436.996582, 87, 71, 51
-1379.81311, 2149.341309, 444.108124, 97, 83, 62
-1380.498291, 2149.406006, 450.432617, 103, 88, 66
-1376.397461, 2150.085693, 453.822906, 109, 94, 71
-1375.966187, 2149.090576, 441.628815, 128, 112, 92
-1384.237305, 2149.35376, 451.938538, 122, 107, 83
-1381.730347, 2150.793701, 442.796539, 107, 93, 73
-1372.709229, 2150.483398, 431.674133, 101, 86, 63
-1377.887329, 2150.485107, 452.782471, 107, 91, 68
-1379.508423, 2150.497559, 451.590668, 113, 98, 73
-1383.059937, 2151.356201, 437.614105, 95, 80, 60
-1382.199097, 2150.621826, 435.593719, 119, 103, 82
-1382.124878, 2150.968506, 433.641113, 119, 104, 79
-1378.619385, 2150.919434, 434.102203, 118, 102, 77
-1368.93811, 2150.82251, 430.096252, 113, 98, 77
-1376.894409, 2151.039795, 435.450592, 124, 108, 87
-1370.834961, 2150.883545, 430.858459, 109, 94, 73
-1374.088135, 2148.960693, 444.921387, 113, 98, 74
-1386.432617, 2149.75293, 454.725342, 93, 78, 57
-1372.611572, 2149.803711, 446.199036, 120, 105, 79
-1369.71936, 2150.295898, 452.88913, 116, 101, 77
-1367.629517, 2146.287354, 451.796539, 140, 125, 105
-1381.541992, 2151.975586, 459.474091, 102, 87, 63
-1379.620117, 2151.473389, 458.693695, 106, 91, 65
-1377.742798, 2150.13501, 459.87149, 112, 97, 74
-1370.862305, 2149.206787, 459.57431, 115, 100, 77
-1373.839722, 2149.269287, 438.850189, 119, 103, 78
-1372.429565, 2149.05542, 458.354492, 116, 101, 77
-1374.992798, 2150.073975, 459.107391, 114, 99, 75
-1378.835815, 2148.515381, 444.806396, 139, 126, 106
-1380.297485, 2149.734131, 446.274414, 116, 101, 76
-1373.019409, 2150.21167, 448.275208, 118, 103, 84
-1373.286499, 2150.331787, 452.414063, 102, 88, 64
-1382.378784, 2149.424072, 451.179199, 118, 103, 80
-1373.38269, 2149.331055, 436.761963, 102, 86, 67
-1373.32251, 2150.672607, 450.393372, 88, 72, 52
-1384.092041, 2149.36084, 449.913574, 92, 76, 55
-1371.586548, 2146.431885, 456.276917, 139, 124, 104
-1374.770874, 2150.318604, 455.028656, 91, 76, 56
-1371.535767, 2149.393555, 435.977783, 116, 101, 80
-1386.206055, 2149.757568, 452.697998, 117, 102, 78
-1373.943604, 2150.331055, 456.436829, 97, 81, 59
-1372.627197, 2149.091309, 432.63974, 109, 92, 67
-1381.334961, 2149.988037, 452.418213, 118, 104, 79
-1382.973267, 2149.580322, 453.202789, 123, 108, 85
-1379.263062, 2150.448242, 449.627045, 98, 83, 62
-1369.670166, 2150.397461, 450.66217, 109, 94, 72
-1384.203735, 2150.775635, 440.277496, 105, 89, 66
-1369.590454, 2149.353027, 435.191895, 118, 102, 79
-1383.580322, 2150.37085, 455.222748, 81, 67, 47
-1378.492798, 2149.53418, 447.568115, 114, 99, 76
-1382.002197, 2149.098389, 447.027832, 123, 108, 84
-1373.426392, 2149.12085, 440.864502, 131, 115, 91
-1371.414673, 2150.235107, 451.668762, 115, 101, 77
-1373.791992, 2149.128662, 442.885223, 111, 96, 77
-1376.845947, 2150.566162, 449.719696, 99, 84, 63
-1369.990479, 2149.514648, 437.21817, 101, 86, 65
-1376.745117, 2150.999023, 433.309479, 119, 103, 77
-1370.681885, 2149.888916, 445.337311, 121, 106, 81
-1377.990479, 2149.45459, 442.4711, 124, 109, 90
-1369.54126, 2148.91626, 439.244965, 118, 102, 77
-1378.116211, 2150.352295, 438.439789, 119, 103, 79
-1379.830322, 2150.353027, 441.306305, 122, 106, 83
-1379.300659, 2151.251465, 456.759369, 96, 81, 57
-1381.35376, 2152.098389, 457.5271, 107, 92, 67
-1375.218628, 2150.74585, 457.137268, 104, 89, 65
-1375.330322, 2146.462402, 452.747803, 137, 124, 103
-1372.263916, 2146.583496, 438.521973, 142, 128, 107
-1372.768555, 2149.363037, 448.882813, 140, 127, 106
-1384.820923, 2148.357666, 446.231049, 139, 126, 105
-1368.406128, 2149.241943, 433.605377, 137, 123, 101
-1382.03186, 2148.891357, 440.114655, 130, 117, 94
-1380.28186, 2149.741943, 446.313873, 116, 101, 76
-1381.877197, 2149.332764, 444.957367, 115, 100, 76
-1383.891235, 2149.268555, 447.920227, 120, 105, 83
-1373.342773, 2150.616211, 452.468719, 102, 87, 63
-1374.975586, 2150.434326, 449.051239, 104, 89, 70
-1379.593628, 2148.999023, 444.136627, 111, 96, 76
-1372.83728, 2149.252197, 436.702789, 90, 73, 54
-1378.703003, 2150.619385, 436.228973, 113, 98, 77
-1372.937378, 2150.084229, 450.422028, 98, 83, 63
-1384.299805, 2149.952881, 445.832672, 118, 103, 78
-1372.248291, 2147.304443, 456.793793, 138, 123, 104
-1373.536499, 2150.327881, 454.451141, 104, 89, 68
-1385.097534, 2150.452148, 451.952789, 116, 101, 76
-1384.395874, 2148.962402, 453.968018, 122, 108, 86
-1384.827148, 2150.881104, 438.371887, 113, 98, 75
-1371.553711, 2149.088135, 440.031494, 130, 114, 89
-1384.491211, 2151.146729, 436.407715, 114, 99, 79
-1382.136597, 2149.053711, 449.091614, 101, 86, 65
-1377.66394, 2148.977295, 444.500946, 116, 101, 79
-1380.233398, 2149.022461, 448.335358, 117, 102, 81
-1376.586548, 2150.388916, 447.759766, 121, 106, 86
-1370.349854, 2149.638184, 443.30246, 97, 82, 62
-1378.321655, 2150.786621, 432.087555, 111, 95, 71
-1371.68811, 2150.391357, 453.669098, 109, 94, 72
-1380.21228, 2150.863037, 432.861145, 118, 102, 77
-1375.691284, 2149.01709, 443.691559, 109, 94, 74
-1373.145874, 2149.30835, 438.783417, 126, 111, 87
-1372.08728, 2148.872559, 444.079437, 105, 90, 69
-1371.058472, 2150.185791, 447.524902, 127, 112, 90
-1375.275635, 2150.72168, 451.085785, 108, 93, 70
-1380.97876, 2152.241943, 439.017792, 114, 98, 71
-1369.32251, 2149.059326, 454.966278, 121, 105, 86
-1377.634155, 2149.181152, 440.436188, 134, 116, 93
-1378.794312, 2150.535889, 454.671722, 110, 95, 74
-1377.836548, 2151.724854, 457.900848, 106, 91, 65
-1375.713135, 2149.144287, 439.656738, 136, 121, 95
-1376.227905, 2148.75293, 437.890625, 134, 120, 99
-1372.542847, 2145.383545, 443.086395, 139, 126, 105
-1384.546753, 2146.920898, 451.431488, 138, 125, 104
-1381.138062, 2150.035889, 433.972382, 133, 118, 96
-1374.607666, 2152.376465, 508.624023, 73, 58, 42
-1369.50769, 2149.500732, 462.388885, 132, 118, 99
-1396.606079, 2150.106201, 490.973877, 96, 82, 62
-1371.992065, 2150.620117, 504.279114, 74, 60, 43
-1394.583374, 2149.719482, 492.175934, 83, 69, 51
-1403.184204, 2150.844482, 512.15918, 55, 44, 28
-1402.948242, 2152.856201, 511.121399, 58, 47, 31
-1375.473267, 2148.068604, 472.258362, 100, 84, 65
-1401.325562, 2156.198975, 500.99527, 77, 63, 41
-1382.290405, 2148.49292, 475.538177, 109, 94, 73
-1395.833374, 2149.946045, 521.854919, 55, 44, 29
-1371.679565, 2151.604492, 514.012024, 65, 52, 36
-1375.140503, 2148.560791, 469.23526, 98, 83, 60
-1380.073242, 2149.733398, 466.697906, 106, 93, 72
-1380.843628, 2153.30542, 485.087463, 127, 113, 93
-1384.592773, 2154.809326, 510.398163, 65, 52, 36
-1386.285034, 2150.771729, 497.250336, 86, 72, 52
-1383.458374, 2151.326416, 462.225067, 79, 63, 44
-1399.872437, 2150.327881, 483.681976, 97, 82, 59
-1390.676392, 2151.382568, 508.227448, 68, 54, 38
-1381.246704, 2150.880371, 502.782806, 78, 64, 45
-1390.785034, 2150.104492, 513.320923, 60, 49, 33
-1404.078735, 2151.477295, 486.811523, 72, 58, 42
-1405.41394, 2149.990479, 495.79541, 85, 70, 52
-1371.685791, 2151.097412, 516.11438, 60, 47, 32
-1373.22168, 2151.462402, 512.785339, 62, 49, 34
-1365.779541, 2151.133545, 512.976501, 61, 48, 33
-1381.635742, 2148.911621, 469.488831, 108, 92, 70
-1393.152222, 2151.2146, 503.845795, 74, 59, 41
-1406.553711, 2152.108398, 506.764557, 69, 55, 39
-1369.56311, 2150.89209, 469.374908, 102, 86, 64
-1394.058472, 2157.77417, 476.039856, 130, 115, 96
-1379.798218, 2147.860107, 487.092041, 71, 55, 40
-1377.24353, 2148.166992, 479.527832, 96, 80, 60
-1374.718628, 2150.51709, 473.827148, 82, 67, 50
-1376.30603, 2151.818604, 476.428223, 103, 88, 64
-1371.157593, 2149.104492, 468.139221, 132, 118, 99
-1401.120972, 2150.376465, 516.585388, 57, 46, 29
-1371.047485, 2149.989746, 502.655182, 80, 65, 48
-1398.393555, 2148.945068, 490.963379, 99, 84, 64
-1404.10144, 2148.880371, 479.83725, 81, 66, 49
-1399.638062, 2148.307617, 476.282532, 97, 81, 59
-1378.74353, 2151.313965, 475.128723, 89, 75, 53
-1379.999878, 2147.792725, 498.985565, 77, 63, 45
-1376.363892, 2149.196045, 492.599701, 82, 68, 50
-1379.175659, 2148.392822, 480.223541, 93, 78, 58
-1396.07019, 2149.862305, 482.208984, 95, 80, 58
-1399.658447, 2149.999023, 481.79126, 93, 77, 57
-1389.41394, 2150.470215, 465.828613, 104, 89, 68
-1390.766235, 2151.806885, 494.57193, 71, 57, 37
-1389.770874, 2152.320068, 460.857513, 84, 69, 50
-1389.396729, 2149.72168, 514.940247, 61, 48, 33
-1395.843628, 2150.043701, 521.871582, 55, 44, 29
-1394.518555, 2151.497559, 519.979187, 52, 39, 26
-1383.553711, 2150.982666, 501.498993, 76, 62, 44
-1390.69519, 2150.58667, 467.79834, 80, 65, 48
-1379.667847, 2152.82959, 505.97052, 63, 50, 34
-1387.828735, 2150.2771, 515.198181, 56, 44, 29
-1380.042847, 2152.979492, 513.063599, 64, 51, 36
-1369.614624, 2150.709229, 472.885223, 101, 88, 68
-1392.838867, 2151.825684, 466.600494, 103, 88, 70
-1371.777222, 2151.103027, 516.232056, 59, 46, 31
-1368.761597, 2151.331055, 510.221405, 66, 53, 38
-1368.893555, 2151.090576, 518.8927, 53, 41, 26
-1372.100586, 2149.613037, 495.003723, 86, 73, 51
-1366.036499, 2149.928711, 510.488098, 66, 53, 39
-1379.689697, 2148.998291, 464.72583, 113, 98, 73
-1378.075562, 2148.982666, 470.123596, 100, 84, 57
-1372.972534, 2150.234131, 498.082184, 83, 69, 50
-1375.311523, 2151.688232, 467.747162, 130, 116, 97
-1404.210815, 2150.52417, 515.610168, 60, 47, 32
-1375.49353, 2148.82251, 467.270355, 93, 80, 61
-1388.207642, 2152.162354, 482.990875, 96, 80, 58
-1382.309937, 2151.054443, 485.300293, 92, 76, 56
-1383.702148, 2152.378662, 515.424622, 61, 47, 33
-1381.910034, 2148.362305, 489.14801, 92, 75, 52
-1380.053711, 2149.20459, 470.704498, 101, 85, 60
-1378.095093, 2148.40918, 493.470032, 67, 52, 34
-1352.358398, 2136.943604, 522.704529, 56, 42, 26
-1369.97168, 2148.034912, 467.823059, 132, 119, 99
-1388.945923, 2149.331787, 520.287903, 55, 43, 27
-1383.43811, 2148.42334, 520.136169, 58, 45, 29
-1367.973267, 2151.399902, 526.295227, 51, 40, 27
-1384.487305, 2151.818604, 478.174866, 142, 127, 108
-1403.147461, 2155.883545, 501.776947, 82, 68, 45
-1394.881836, 2151.147461, 487.476959, 73, 59, 41
-1381.457642, 2149.578857, 467.426025, 88, 75, 56
-1374.699097, 2149.963867, 486.567383, 83, 69, 51
-1379.05603, 2147.87085, 518.409607, 49, 37, 22
-1402.325562, 2149.781006, 492.420959, 95, 81, 63
-1363.119385, 2150.623291, 510.634674, 64, 51, 35
-1383.574829, 2151.68042, 503.493713, 74, 60, 42
-1392.666992, 2150.942871, 468.56485, 87, 72, 53
-1382.550659, 2148.37085, 479.694061, 98, 83, 63
-1397.122437, 2147.974854, 473.449615, 95, 81, 63
-1377.498291, 2149.5271, 477.285217, 102, 87, 61
-1395.72168, 2150.14917, 491.88559, 79, 65, 48
-1391.12561, 2149.342041, 476.772949, 105, 89, 67
-1394.53418, 2148.903076, 474.448822, 79, 64, 46
-1392.489624, 2151.134277, 478.676361, 99, 84, 65
-1402.326416, 2151.756104, 513.665161, 60, 48, 32
-1374.388062, 2150.466309, 463.846832, 103, 87, 64
-1385.922485, 2148.539795, 477.076996, 115, 99, 76
-1382.492798, 2148.595215, 477.594635, 107, 91, 67
-1403.862305, 2150.497559, 518.199036, 52, 40, 25
-1374.379517, 2148.07251, 498.986786, 77, 64, 45
-1396.435791, 2150.720215, 488.274902, 89, 75, 55
-1377.94519, 2150.095947, 461.828339, 78, 63, 44
-1394.657593, 2151.049072, 483.152802, 94, 79, 56
-1397.680298, 2150.450684, 479.045746, 96, 82, 64
-1398.282593, 2150.151367, 484.914032, 102, 88, 68
-1389.40686, 2151.506104, 509.678619, 68, 55, 39
-1384.079468, 2149.756836, 492.134125, 82, 68, 51
-1392.54126, 2151.852295, 495.368073, 85, 71, 49
-1391.998291, 2150.258545, 497.784027, 82, 68, 50
-1384.146729, 2147.269287, 516.828552, 59, 46, 29
-1392.232666, 2150.285889, 519.278259, 53, 42, 26
-1390.25293, 2149.349854, 516.02533, 59, 47, 30
-1375.600586, 2151.799072, 489.07785, 92, 76, 53
-1373.921753, 2151.403076, 490.599518, 79, 63, 42
-1375.699097, 2151.494385, 517.703552, 53, 41, 26
-1377.926392, 2149.665527, 515.426697, 63, 50, 33
-1370.69519, 2151.114746, 464.232819, 106, 90, 65
-1372.402954, 2151.519287, 520.352234, 57, 44, 30
-1368.404541, 2149.381836, 504.098541, 73, 59, 41
-1370.823242, 2151.264648, 480.683502, 75, 61, 44
-1367.913086, 2150.942139, 516.725769, 58, 45, 31
-1367.897461, 2150.970947, 516.618469, 58, 45, 31
-1366.802124, 2149.692871, 524.296204, 49, 36, 23
-1398.178711, 2148.72168, 478.345917, 117, 104, 86
-1377.802979, 2149.229492, 484.052002, 104, 88, 65
-1384.043579, 2153.085693, 469.226898, 124, 110, 91
-1363.624878, 2149.768555, 519.234802, 56, 43, 29
-1376.114624, 2150.033447, 463.147522, 101, 85, 64
-1374.217773, 2150.87793, 500.272217, 66, 52, 35
-1365.176392, 2150.417725, 517.401306, 55, 43, 28
-1395.13269, 2148.983398, 471.346008, 99, 83, 59
-1403.857666, 2150.06543, 484.90036, 90, 75, 56
-1404.453735, 2150.659912, 493.129547, 71, 58, 42
-1392.903687, 2151.49585, 506.441498, 58, 48, 31
-1383.291992, 2153.295166, 514.517761, 63, 49, 34
-1374.97644, 2149.848389, 487.511536, 123, 108, 88
-1386.828735, 2150.514648, 505.227051, 63, 51, 34
-1385.650635, 2148.129639, 475.006592, 101, 84, 64
-1376.580322, 2152.057617, 478.614838, 99, 84, 61
-1379.43811, 2148.90918, 482.499359, 96, 80, 56
-1354.979492, 2137.366211, 522.777832, 55, 42, 26
-1370.036499, 2148.115479, 467.846039, 134, 121, 101
-1380.410767, 2148.381104, 523.806152, 47, 35, 20
-1373.069336, 2151.577881, 476.680145, 79, 62, 41
-1398.709229, 2149.24292, 494.997131, 84, 70, 49
-1393.578003, 2150.229492, 477.493622, 101, 85, 63
-1386.068604, 2151.688965, 466.918365, 96, 82, 64
-1403.32019, 2150.761475, 489.873932, 93, 78, 56
-1383.189697, 2150.255371, 466.179169, 103, 89, 67
-1394.708374, 2148.833496, 500.983307, 76, 62, 42
-1397.79126, 2156.76709, 503.954407, 69, 56, 39
-1374.786499, 2151.516357, 465.760956, 102, 86, 63
-1400.496704, 2148.838135, 494.063293, 76, 63, 43
-1401.003784, 2150.10376, 493.735596, 72, 59, 40
-1351.441284, 2136.633545, 521.972656, 57, 43, 28
-1399.220093, 2150.023193, 492.970673, 75, 62, 44
-1386.457642, 2154.935059, 509.182129, 69, 56, 39
-1388.896729, 2151.48584, 493.813446, 74, 61, 42
-1383.006836, 2150.781982, 485.780579, 115, 101, 83
-1369.624023, 2149.373291, 490.706268, 119, 105, 87
-1405.505249, 2149.598389, 497.858551, 80, 66, 50
-1374.834229, 2150.217041, 491.497406, 95, 80, 62
-1373.583374, 2150.632568, 492.955658, 68, 53, 37
-1382.488159, 2148.64917, 477.591125, 107, 91, 67
-1389.169312, 2153.495117, 502.878479, 75, 61, 42
-1372.111572, 2150.955322, 492.121307, 86, 71, 55
-1400.396729, 2149.416992, 491.687653, 103, 88, 69
-1388.829468, 2151.52417, 497.986389, 81, 68, 50
-1392.454468, 2150.391357, 473.13974, 89, 74, 55
-1404.392822, 2150.595947, 510.619049, 63, 51, 35
-1403.259155, 2151.701416, 499.612152, 66, 52, 34
-1378.524048, 2148.119385, 500.199768, 66, 53, 37
-1383.143555, 2148.271729, 474.266083, 76, 62, 43
-1386.88501, 2150.364014, 465.779755, 107, 93, 71
-1382.699829, 2148.352295, 481.711731, 88, 72, 51
-1398.835815, 2152.733398, 510.551361, 64, 51, 36
-1392.49353, 2150.499023, 471.107635, 103, 87, 63
-1384.178711, 2148.638184, 476.297943, 108, 92, 70
-1383.44519, 2148.490479, 472.304657, 112, 96, 77
-1396.32019, 2151.484131, 517.347351, 52, 41, 26
-1397.393555, 2150.217773, 477.101776, 98, 81, 59
-1380.724854, 2148.6521, 476.819061, 109, 93, 69
-1398.556885, 2153.244385, 509.14444, 69, 55, 38
-1395.715454, 2153.448242, 509.804413, 69, 55, 38
-1393.910767, 2153.728027, 506.596771, 62, 50, 33
-1401.912354, 2150.883545, 484.428192, 94, 79, 58
-1378.032593, 2149.225586, 493.391205, 67, 52, 34
-1393.430298, 2151.849854, 482.607971, 96, 81, 59
-1395.981812, 2149.631104, 495.874268, 87, 73, 51
-1397.372437, 2151.463135, 511.635559, 58, 47, 31
-1396.21228, 2151.613037, 515.191895, 54, 41, 26
-1395.819336, 2151.325684, 513.043457, 56, 45, 29
-1390.53418, 2150.830322, 480.315979, 80, 66, 49
-1390.518555, 2150.854492, 480.347168, 80, 65, 49
-1389.81311, 2150.110107, 476.878662, 119, 106, 87
-1387.656128, 2151.84668, 469.711639, 102, 86, 62
-1386.377197, 2150.01709, 523.279114, 48, 36, 21
-1390.49353, 2151.300537, 508.226074, 68, 55, 38
-1385.256836, 2151.442871, 463.011932, 100, 85, 62
-1387.549805, 2151.212402, 467.703949, 79, 65, 48
-1370.643555, 2149.442871, 484.981171, 110, 97, 78
-1386.437378, 2154.559326, 511.17392, 61, 49, 33
-1386.82019, 2151.612305, 501.12851, 76, 63, 45
-1395.46228, 2152.823975, 509.437805, 69, 55, 39
-1383.661499, 2152.607666, 505.46701, 63, 50, 34
-1383.052124, 2150.531982, 464.199371, 108, 93, 68
-1376.544312, 2150.443604, 508.03476, 72, 57, 40
-1398.120972, 2150.387451, 482.935059, 97, 83, 59
-1378.233398, 2152.738037, 505.158691, 64, 51, 35
-1389.436523, 2153.010742, 512.825378, 60, 48, 32
-1369.939697, 2151.130371, 474.818512, 87, 72, 52
-1376.377197, 2150.104492, 500.536346, 73, 59, 41
-1375.510742, 2150.513184, 524.102356, 44, 32, 20
-1380.266235, 2150.11792, 516.139343, 59, 46, 31
-1374.452148, 2149.864014, 502.221283, 70, 55, 38
-1381.520874, 2152.100586, 504.751617, 68, 56, 39
-1377.408447, 2149.38501, 511.482635, 61, 49, 32
-1375.727173, 2151.044434, 521.98645, 52, 40, 26
-1374.834229, 2150.898193, 511.783295, 62, 49, 34
-1376.934204, 2151.22168, 512.513611, 62, 50, 34
-1373.876343, 2151.232666, 519.0625, 57, 45, 30
-1372.590454, 2151.455322, 506.307037, 63, 50, 35
-1376.192749, 2152.177246, 509.485077, 69, 55, 39
-1373.716187, 2151.161621, 516.958801, 53, 40, 25
-1378.198242, 2149.926514, 489.384857, 94, 79, 55
-1370.90918, 2151.248291, 482.722076, 98, 83, 60
-1370.108398, 2151.0271, 501.726471, 78, 64, 45
-1363.44751, 2150.536621, 515.242371, 60, 47, 32
-1377.857666, 2149.168701, 463.941864, 114, 99, 75
-1406.244385, 2151.151367, 511.354797, 59, 47, 31
-1382.204468, 2149.986572, 521.920349, 53, 40, 26
-1406.658447, 2149.520996, 509.92511, 66, 53, 37
-1395.686523, 2150.159912, 483.313721, 124, 111, 90
-1403.829468, 2150.92334, 482.119476, 114, 102, 84
-1402.639648, 2150.978027, 509.7836, 67, 53, 37
-1392.249023, 2153.435791, 489.10968, 90, 75, 52
-1394.901367, 2151.443604, 483.398682, 94, 78, 55
-1386.333374, 2152.202881, 482.210785, 94, 79, 57
-1386.150635, 2151.631104, 488.757172, 90, 74, 51
-1390.799805, 2149.709961, 465.321014, 132, 117, 99
-1388.637329, 2152.739746, 473.62973, 81, 66, 48
-1385.366211, 2151.685059, 500.320038, 65, 52, 35
-1384.160767, 2152.03418, 483.872894, 91, 75, 52
-1382.599854, 2151.241211, 487.391266, 72, 57, 40
-1382.242798, 2151.983398, 483.091553, 93, 77, 53
-1374.404541, 2148.832764, 473.783112, 85, 69, 52
-1375.298218, 2146.903809, 497.539642, 92, 77, 56
-1372.420166, 2153.044434, 499.31192, 71, 58, 40
-1385.427979, 2148.468506, 459.568329, 128, 114, 94
-1390.862305, 2151.939697, 503.578918, 75, 60, 42
-1373.660034, 2150.115479, 528.527466, 37, 25, 14
-1371.367798, 2150.205322, 528.590149, 48, 36, 25
-1385.592773, 2150.498291, 484.741913, 96, 81, 60
-1360.455322, 2135.958496, 526.219055, 48, 36, 22
-1377.084961, 2148.114014, 479.455627, 96, 81, 60
-1377.433472, 2148.22876, 481.628571, 88, 73, 51
-1373.231079, 2149.018555, 468.002258, 77, 63, 46
-1369.802124, 2151.278809, 499.340332, 69, 56, 38
-1392.450562, 2150.626465, 523.691589, 49, 37, 23
-1369.97168, 2148.034912, 467.823059, 132, 119, 99
-1369.97168, 2148.034912, 467.823059, 134, 121, 101
-1370.913086, 2151.356934, 467.475647, 134, 120, 100
-1387.554565, 2152.392822, 458.408539, 104, 89, 65
-1402.107666, 2149.202148, 514.968201, 61, 47, 31
-1368.589722, 2147.858398, 460.991302, 133, 118, 99
-1383.150635, 2150.056885, 519.057556, 57, 44, 28
-1378.612305, 2149.213135, 519.365723, 56, 45, 29
-1368.169312, 2148.700684, 528.901672, 49, 37, 24
-1393.66626, 2150.725586, 475.504852, 100, 85, 64
-1382.483398, 2155.253662, 528.966125, 39, 27, 15
-1397.561523, 2149.857666, 492.684143, 86, 72, 53
-1389.386597, 2150.57251, 486.563324, 70, 56, 40
-1377.545898, 2148.757568, 501.810394, 77, 64, 46
-1392.97644, 2151.13501, 511.428619, 60, 48, 33
-1383.423218, 2149.9646, 468.200928, 82, 68, 49
-1383.523315, 2149.05542, 470.251434, 110, 93, 69
-1374.206055, 2149.624023, 482.647461, 99, 83, 59
-1381.301392, 2150.169434, 465.402649, 108, 93, 69
-1372.575562, 2149.718506, 483.832428, 99, 83, 59
-1376.146729, 2150.052246, 483.404266, 98, 82, 57
-1373.060791, 2150.213135, 487.728668, 78, 64, 44
-1380.068604, 2149.735107, 466.709625, 106, 92, 71
-1369.350586, 2150.327148, 486.270905, 86, 72, 54
-1380.699829, 2151.141357, 504.386475, 74, 61, 43
-1402.69751, 2149.809326, 494.770752, 83, 69, 50
-1394.759155, 2150.913086, 485.536621, 88, 74, 55
-1371.28186, 2148.612305, 489.292633, 94, 79, 55
-1392.950562, 2150.764648, 484.784912, 93, 78, 58
-1362.525635, 2149.944336, 508.548737, 68, 54, 38
-1390.217773, 2151.077148, 496.889954, 74, 60, 40
-1378.959229, 2151.608398, 507.927246, 71, 56, 38
-1391.582642, 2151.516357, 481.868896, 88, 73, 53
-1367.541992, 2150.499023, 503.163971, 75, 61, 43
-1365.957642, 2149.900635, 507.601563, 67, 55, 37
-1363.692749, 2149.105225, 506.865814, 63, 50, 31
-1389.59668, 2151.705322, 468.450653, 79, 64, 45
-1395.702148, 2148.789795, 486.416656, 73, 59, 43
-1367.467773, 2147.850586, 492.861176, 108, 95, 77
-1362.306885, 2147.409912, 506.328613, 61, 48, 29
-1406.199829, 2150.005371, 499.834778, 68, 55, 37
-1374.699829, 2149.928711, 504.242096, 69, 56, 38
-1397.532593, 2149.306885, 494.679413, 84, 71, 50
-1380.944336, 2148.966309, 492.778961, 75, 60, 42
-1399.871704, 2148.307617, 478.289551, 95, 80, 60
-1395.667847, 2149.570068, 493.881348, 76, 62, 43
-1389.342041, 2151.560791, 499.973114, 69, 56, 39
-1400.862305, 2149.500732, 480.617279, 79, 65, 48
-1378.847534, 2148.69043, 476.049286, 109, 94, 71
-1397.151367, 2149.856934, 494.157288, 80, 66, 46
-1390.19751, 2150.334229, 498.918762, 69, 56, 40
-1392.427124, 2151.035889, 478.652313, 99, 84, 65
-1387.433472, 2151.810791, 499.151184, 68, 55, 39
-1403.600586, 2151.102295, 503.417206, 73, 59, 40
-1383.824829, 2150.709229, 499.476563, 69, 56, 39
-1394.009155, 2149.68042, 495.063202, 88, 74, 53
-1385.412354, 2152.626465, 459.102264, 108, 92, 68
-1380.611572, 2148.768555, 496.92514, 84, 70, 49
-1381.711548, 2151.770996, 461.42276, 80, 65, 45
-1379.738159, 2150.948975, 460.655243, 102, 87, 66
-1382.535034, 2148.651367, 493.590485, 71, 57, 39
-1381.345093, 2148.756104, 463.449768, 114, 98, 76
-1395.067749, 2154.442871, 505.609863, 59, 47, 29
-1400.169312, 2153.515381, 512.052856, 58, 45, 30
-1377.123291, 2148.4021, 499.827454, 67, 53, 35
-1386.013916, 2150.941162, 480.298309, 76, 61, 43
-1380.650635, 2149.44043, 494.237213, 77, 62, 43
-1379.995972, 2148.876465, 472.705719, 113, 99, 79
-1380.354492, 2148.306152, 474.771881, 87, 72, 53
-1400.405273, 2150.161621, 487.647766, 86, 72, 53
-1376.415405, 2149.550537, 490.605072, 90, 74, 52
-1373.998291, 2149.724854, 462.45517, 132, 118, 99
-1389.807617, 2151.973389, 461.499084, 71, 57, 38
-1402.25061, 2151.081787, 486.39151, 72, 57, 41
-1391.331055, 2151.691162, 510.476776, 61, 48, 33
-1396.019409, 2150.388916, 480.213531, 75, 60, 44
-1390.417847, 2152.524902, 463.578949, 105, 89, 66
-1375.965454, 2150.111572, 461.043121, 93, 78, 58
-1388.11853, 2150.02417, 507.561737, 70, 56, 40
-1391.628784, 2150.431152, 491.287903, 86, 72, 52
-1395.918579, 2150.74585, 478.256409, 90, 74, 55
-1385.319336, 2150.731934, 468.971771, 95, 80, 59
-1390.725586, 2150.94751, 510.762299, 62, 50, 34
-1369.785034, 2149.177979, 481.271393, 129, 114, 95
-1389.224854, 2152.353027, 516.936462, 54, 42, 27
-1387.941284, 2151.881104, 508.812103, 69, 55, 39
-1393.622437, 2150.236572, 514.96405, 55, 42, 27
-1393.723999, 2150.74292, 517.514099, 51, 40, 25
-1388.638916, 2149.41626, 512.532898, 58, 46, 29
-1387.88269, 2150.377197, 491.661865, 85, 71, 52
-1385.120972, 2151.44043, 504.326508, 66, 53, 36
-1385.098267, 2150.649902, 464.984833, 98, 83, 57
-1384.975586, 2150.573975, 506.427551, 63, 51, 35
-1391.845093, 2149.892822, 516.79364, 57, 45, 29
-1379.040405, 2149.359131, 507.177063, 67, 53, 34
-1384.218628, 2150.665527, 513.616028, 60, 47, 32
-1386.668579, 2148.411621, 520.67804, 55, 42, 26
-1391.892822, 2149.628662, 514.215271, 61, 49, 34
-1381.38501, 2150.363037, 500.748047, 78, 63, 46
-1379.749023, 2151.172607, 501.951904, 79, 64, 46
-1396.314697, 2150.551514, 482.157135, 95, 80, 58
-1372.952148, 2151.035889, 472.913574, 100, 85, 66
-1397.870117, 2150.321045, 480.991699, 85, 70, 52
-1375.282593, 2151.286621, 513.759766, 62, 49, 34
-1377.088867, 2151.366211, 474.557434, 80, 65, 46
-1377.237305, 2151.090576, 516.492981, 58, 45, 31
-1371.00293, 2149.109131, 473.742676, 90, 75, 57
-1375.117065, 2151.500732, 513.559509, 61, 49, 33
-1373.911499, 2151.202881, 516.939392, 53, 40, 25
-1372.435791, 2150.563232, 513.156677, 62, 50, 34
-1377.205322, 2151.567871, 514.393738, 65, 51, 36
-1371.886597, 2151.37085, 510.103119, 70, 57, 41
-1373.924072, 2152.016357, 510.829102, 66, 52, 37
-1374.723999, 2152.147461, 523.103516, 49, 38, 24
-1370.248291, 2151.325684, 517.471619, 54, 41, 26
-1372.917847, 2151.50293, 464.981995, 96, 81, 56
-1390.020142, 2152.313965, 472.611145, 89, 74, 55
-1387.411499, 2149.227295, 485.59845, 101, 86, 67
-1368.916992, 2151.571045, 507.994446, 69, 57, 40
-1368.046753, 2151.279541, 514.527466, 63, 50, 35
-1367.935791, 2150.986572, 514.684387, 63, 50, 35
-1370.18811, 2151.806885, 513.191711, 63, 50, 35
-1368.723999, 2151.886475, 510.296204, 67, 54, 39
-1367.510742, 2150.0896, 512.582642, 61, 48, 33
-1367.570923, 2149.741943, 512.741699, 61, 48, 33
-1381.924805, 2149.163818, 471.491699, 110, 93, 70
-1362.866211, 2149.626465, 513.260864, 64, 50, 34
-1398.82251, 2151.22168, 475.126709, 119, 105, 87
-1366.608398, 2150.490479, 519.06897, 54, 42, 27
-1376.18811, 2147.560059, 487.682434, 69, 53, 35
-1376.301392, 2149.479492, 465.223938, 105, 90, 64
-1359.650635, 2135.61084, 528.377258, 51, 38, 26
-1365.692749, 2150.845215, 521.93866, 53, 41, 27
-1406.048218, 2151.389648, 502.212891, 74, 59, 40
-1405.106079, 2151.457764, 512.907898, 59, 47, 32
-1400.145874, 2150.01709, 484.974121, 116, 103, 85
-1396.995972, 2135.470947, 510.777252, 67, 51, 33
-1396.555298, 2149.712402, 488.614319, 111, 97, 79
-1404.747437, 2153.166992, 507.978119, 69, 54, 36
-1401.803711, 2152.084229, 497.450195, 80, 66, 46
-1382.961548, 2149.74585, 507.806946, 69, 54, 37
-1384.521729, 2152.282715, 485.975891, 83, 69, 51
-1387.776367, 2149.842041, 479.208466, 97, 82, 63
-1389.578003, 2150.667725, 488.510101, 91, 76, 55
-1384.174805, 2150.198242, 488.242004, 85, 70, 49
-1374.342041, 2151.682617, 477.689026, 87, 72, 49
-1372.76001, 2151.468506, 481.443939, 86, 71, 51
-1400.545898, 2151.624756, 490.945709, 113, 100, 82
-1372.775635, 2152.383545, 506.197357, 61, 49, 33
-1373.57019, 2151.416992, 475.305145, 74, 59, 40
-1375.703735, 2148.990479, 494.698883, 83, 69, 47
-1388.939697, 2155.884277, 482.07724, 128, 114, 95
-1375.794312, 2151.463867, 471.082245, 101, 84, 61
-1371.665405, 2150.936523, 469.265198, 102, 87, 64
-1376.66626, 2153.573242, 472.885895, 131, 117, 97
-1386.338135, 2148.324951, 517.466248, 53, 40, 25
-1390.922485, 2151.14209, 505.6987, 63, 50, 34
-1385.984253, 2150.37793, 490.884857, 87, 72, 51
-1384.684937, 2149.627197, 494.284882, 77, 61, 42
-1379.798218, 2149.138916, 484.608612, 101, 85, 63
-1384.34668, 2148.698242, 478.38443, 107, 91, 68
-1377.395142, 2148.356201, 481.759857, 90, 75, 53
-1374.044312, 2149.614014, 495.804657, 89, 74, 51
-1372.169312, 2149.157715, 471.027802, 111, 95, 72
-1377.879517, 2147.876465, 486.292542, 83, 69, 51
-1369.949097, 2150.281006, 491.371552, 98, 83, 63
-1367.970093, 2152.054443, 500.912109, 75, 61, 42
-1376.28418, 2151.763916, 478.47168, 100, 85, 62
-1376.200562, 2151.728027, 476.443451, 103, 88, 64
-1367.398315, 2174.442139, 513.17627, 57, 45, 28
-1355.631104, 2136.101318, 524.223633, 51, 39, 24
-1355.819336, 2138.821777, 519.6427, 53, 42, 25
-1349.516235, 2136.032715, 523.338562, 55, 41, 28
-1385.402954, 2166.194336, 528.31366, 38, 26, 13
-1356.145142, 2137.888184, 535.2005, 66, 53, 39
-1346.156128, 2133.734131, 532.951782, 36, 23, 12
-1401.645142, 2182.526367, 519.547485, 48, 36, 24
-1357.223999, 2135.284912, 528.693665, 50, 37, 25
-1374.279541, 2188.156982, 533.330688, 144, 124, 87
-1357.927124, 2135.68335, 531.005005, 48, 36, 25
-1351.359985, 2136.091309, 528.180664, 53, 40, 26
-1371.44519, 2184.438965, 529.90509, 77, 61, 44
-1375.069336, 2183.310059, 527.934692, 64, 49, 34
-1367.200562, 2189.059326, 531.037598, 96, 81, 60
-1396.03186, 2178.955322, 528.392517, 61, 48, 34
-1366.347534, 2186.74585, 529.388184, 79, 65, 49
-1402.556885, 2178.51709, 527.531677, 54, 41, 29
-1398.374878, 2179.800537, 528.983337, 65, 52, 38
-1401.049805, 2150.55542, 525.867126, 50, 38, 27
-1375.967773, 2188.49585, 532.083618, 115, 97, 68
-1340.480347, 2149.784912, 530.616394, 37, 27, 17
-1346.608398, 2135.716309, 525.86908, 48, 36, 21
-1385.715454, 2163.006836, 541.39325, 156, 153, 150
-1360.660767, 2186.327148, 528.705383, 72, 60, 44
-1368.032593, 2184.533447, 530.299316, 76, 61, 44
-1369.442017, 2188.778076, 533.834961, 143, 123, 85
-1399.832642, 2180.095947, 521.861023, 65, 52, 39
-1390.163086, 2178.626465, 528.149536, 63, 50, 36
-1397.68811, 2178.741211, 527.245789, 51, 38, 26
-1401.215454, 2150.68042, 525.688416, 51, 40, 28
-1400.639648, 2152.449951, 527.137878, 51, 38, 27
-1354.767822, 2135.307617, 531.660828, 41, 28, 17
-1360.40686, 2186.102295, 532.799622, 144, 126, 96
-1401.036499, 2179.032715, 524.722473, 45, 33, 22
-1389.631104, 2168.887451, 526.150024, 47, 34, 21
-1366.136597, 2183.428711, 537.086121, 176, 157, 117
-1338.981079, 2150.459961, 531.789978, 55, 43, 30
-1340.807617, 2151.233398, 528.373352, 49, 37, 25
-1355.567017, 2134.685791, 527.897583, 51, 39, 26
-1359.696655, 2135.546631, 532.923828, 41, 28, 17
-1345.863159, 2181.316162, 527.951599, 117, 101, 80
-1384.522461, 2196.990479, 504.428131, 56, 49, 44
-1380.282593, 2188.666992, 526.139343, 112, 96, 78
-1379.640503, 2183.883545, 528.540161, 66, 52, 37
-1375.498291, 2187.247559, 535.406067, 150, 127, 80
-1369.347534, 2189.967041, 531.689941, 105, 90, 66
-1402.523315, 2178.726318, 525.515076, 35, 22, 14
-1394.030273, 2178.909912, 527.681946, 57, 44, 30
-1358.494385, 2187.21167, 526.246704, 62, 52, 43
-1353.127197, 2191.023193, 523.655945, 50, 44, 37
-1395.902222, 2178.72876, 526.537231, 42, 30, 19
-1359.184937, 2186.936523, 534.060852, 139, 119, 78
-1363.558472, 2188.520264, 533.399109, 138, 119, 82
-1385.21936, 2165.670898, 528.371521, 38, 26, 13
-1399.932617, 2151.126465, 524.967896, 52, 40, 27
-1349.053711, 2135.266357, 531.361328, 43, 31, 19
-1357.772461, 2137.582764, 533.944031, 60, 47, 34
-1366.223267, 2193.07251, 528.850525, 103, 91, 77
-1356.285767, 2185.835693, 533.841797, 161, 143, 109
-1353.274048, 2135.148193, 529.191833, 51, 39, 26
-1380.559937, 2184.366943, 528.440735, 66, 53, 38
-1396.716187, 2189.384277, 518.399902, 133, 117, 98
-1374.270142, 2182.159912, 540.519836, 176, 156, 115
-1357.628784, 2136.636475, 546.05957, 154, 151, 152
-1370.722534, 2187.864746, 528.715332, 107, 89, 67
-1331.030273, 2150.230225, 530.860535, 43, 33, 23
-1342.508423, 2149.864014, 531.320313, 51, 42, 33
-1341.15686, 2151.088867, 532.449829, 59, 48, 36
-1366.756104, 2182.4646, 528.391235, 68, 54, 41
-1385.979492, 2188.342773, 529.756287, 80, 65, 48
-1379.022461, 2179.539795, 526.104614, 35, 22, 11
-1379.25769, 2187.818604, 532.666992, 124, 105, 73
-1375.359253, 2179.627197, 526.506348, 43, 30, 19
-1365.482666, 2189.045898, 532.197754, 111, 94, 67
-1365.786499, 2189.006836, 534.176941, 147, 127, 88
-1401.09668, 2178.877197, 526.726013, 45, 32, 21
-1401.285034, 2179.016357, 528.668884, 67, 54, 38
-1399.25293, 2178.646729, 526.01709, 37, 24, 14
-1370.717041, 2188.436523, 533.631775, 144, 122, 82
-1377.547485, 2182.319336, 528.85675, 69, 53, 37
-1354.602905, 2188.448975, 523.588196, 45, 40, 36
-1380.106812, 2188.198975, 532.636169, 126, 106, 74
-1399.467041, 2178.835693, 527.950195, 59, 46, 33
-1397.148315, 2177.914795, 527.38916, 51, 39, 26
-1401.140503, 2179.45459, 522.717285, 50, 37, 26
-1352.857666, 2187.68042, 530.033813, 82, 68, 53
-1402.497437, 2181.912354, 520.432251, 51, 38, 26
-1364.324829, 2187.075684, 530.451843, 77, 62, 46
-1356.798218, 2187.531006, 531.12323, 82, 68, 48
-1354.917847, 2187.017822, 532.351196, 105, 90, 63
-1356.782593, 2187.535889, 531.090637, 82, 68, 48
-1361.319336, 2187.689697, 532.750305, 116, 98, 67
-1400.78418, 2153.23584, 529.567017, 34, 22, 12
-1360.50769, 2135.359131, 532.45343, 36, 23, 13
-1386.525635, 2170.948975, 529.12677, 58, 45, 30
-1399.610718, 2150.26709, 522.731262, 52, 40, 25
-1357.209961, 2135.26001, 534.721497, 62, 49, 37
-1352.910034, 2135.488037, 530.797485, 49, 37, 24
-1350.156128, 2134.177979, 530.195984, 50, 37, 24
-1370.31311, 2194.213867, 527.563477, 112, 97, 81
-1378.143555, 2188.12793, 531.834595, 106, 88, 62
-1373.910767, 2188.108398, 531.332642, 98, 80, 54
-1372.72876, 2188.252197, 534.523254, 154, 133, 90
-1332.63269, 2150.451416, 529.233215, 44, 34, 22
-1361.948242, 2191.644287, 530.061157, 102, 88, 71
-1376.899048, 2186.488037, 536.26947, 173, 153, 116
-1361.060791, 2140.495117, 546.437805, 153, 150, 150
-1375.373291, 2185.967773, 529.973816, 117, 99, 74
-1381.079468, 2186.82959, 532.378723, 137, 117, 85
-1366.881836, 2178.081787, 527.727173, 58, 45, 33
-1360.711548, 2182.982666, 538.558716, 175, 154, 113
-1359.064697, 2135.145264, 535.149231, 63, 49, 36
-1376.104492, 2188.234131, 534.062805, 153, 133, 93
-1377.613159, 2187.781006, 529.844666, 95, 78, 56
-1592.613892, 2025.96228, 337.159637, 188, 183, 186
-1564.00769, 2051.210693, 351.7164, 199, 196, 194
-1583.311523, 2033.908447, 341.175903, 217, 213, 207
-1588.33728, 2032.730347, 338.804474, 199, 194, 194
-1587.403687, 2062.600586, 342.354706, 210, 205, 198
-1588.445923, 2034.138062, 340.088226, 189, 185, 182
-1578.095093, 2042.002197, 341.602722, 212, 208, 200
-1562.641235, 2033.737305, 411.396393, 179, 178, 172
-1549.561523, 2040.862305, 366.255707, 171, 171, 170
-1577.941284, 2049.663086, 345.187103, 209, 205, 196
-1541.912354, 2039.78418, 399.01004, 151, 153, 153
-1564.209961, 2065.859131, 356.791595, 200, 191, 171
-1588.63269, 2033.177979, 337.497437, 195, 189, 189
-1589.014648, 2065.853027, 341.09021, 198, 194, 190
-1541.672485, 2050.40918, 384.283539, 142, 148, 147
-1577.003784, 2008.363159, 348.830109, 230, 227, 222
-1588.30603, 2011.612305, 354.109344, 227, 225, 229
-1548.624878, 2033.388916, 413.128326, 177, 175, 166
-1571.38501, 2074.695068, 347.979187, 219, 212, 198
-1573.621704, 2022.058472, 358.913208, 191, 191, 196
-1560.035767, 2046.433472, 364.387726, 151, 154, 156
-1595.957642, 2032.638062, 333.776398, 180, 173, 174
-1554.206055, 2064.939697, 366.87204, 215, 208, 198
-1563.933472, 1999.949097, 403.423431, 99, 101, 100
-1591.982666, 2025.50769, 338.413269, 189, 186, 187
-1598.718628, 2050.13501, 336.194794, 189, 181, 178
-1556.668579, 2033.413086, 378.616821, 176, 175, 173
-1567.961548, 2064.916992, 353.174194, 205, 197, 182
-1557.270142, 2035.095093, 372.717133, 154, 157, 159
-1580.848999, 2037.961548, 341.578217, 218, 213, 207
-1558.941284, 2062.443604, 365.061615, 196, 186, 168
-1550.898315, 2038.942017, 406.615997, 171, 169, 162
-1556.267822, 2057.394287, 367.24472, 208, 202, 188
-1562.407593, 2003.40686, 372.531677, 144, 145, 145
-1556.860718, 2054.399902, 364.417908, 210, 206, 202
-1577.201416, 2019.178711, 371.503265, 219, 220, 224
-1560.670898, 2049.872559, 359.933441, 175, 176, 175
-1586.970947, 1999.65686, 352.203552, 226, 225, 228
-1565.242065, 2004.898315, 359.711945, 231, 230, 232
-1561.756836, 2081.888916, 356.076385, 217, 207, 182
-1574.577148, 2012.870972, 370.336365, 233, 232, 229
-1560.373291, 2044.013916, 370.002411, 136, 137, 141
-1553.379517, 2073.991943, 375.782654, 243, 234, 209
-1550.420166, 2034.439697, 395.843719, 170, 169, 159
-1558.795166, 2039.049072, 406.804321, 178, 176, 167
-1560.06311, 2034.831055, 389.022186, 178, 177, 170
-1560.119385, 2035.054565, 379.662384, 191, 191, 189
-1554.766968, 2032.833374, 397.373474, 173, 171, 161
-1567.573242, 2013.537354, 397.060577, 209, 208, 211
-1575.209961, 2034.364624, 347.611176, 171, 169, 164
-1570.240479, 2069.725586, 351.085571, 214, 207, 191
-1599.681885, 2031.897461, 336.786072, 183, 175, 171
-1587.538086, 2016.685791, 343.685181, 218, 215, 210
-1587.72644, 2019.14978, 341.78421, 211, 209, 203
-1599.443604, 2036.915405, 335.089783, 181, 172, 166
-1588.848267, 2017.296753, 346.77533, 213, 211, 208
-1557.090454, 2036.977173, 363.47879, 139, 143, 148
-1586.56543, 2070.414795, 341.381531, 183, 178, 174
-1594.522461, 2008.263916, 345.874451, 193, 191, 190
-1541.651367, 2068.309326, 393.630219, 238, 231, 214
-1572.224854, 2037.192749, 352.451141, 163, 162, 160
-1560.762329, 2082.556152, 363.77655, 198, 188, 160
-1584.02478, 2028.68103, 343.478638, 213, 209, 210
-1571.143555, 2022.009155, 373.570984, 161, 161, 161
-1588.28894, 2005.628784, 350.756561, 216, 215, 213
-1564.504517, 1991.615479, 360.463898, 226, 226, 228
-1587.40918, 2043.814697, 337.53006, 206, 201, 196
-1549.223999, 2039.130249, 409.995514, 172, 170, 163
-1565.858398, 2001.306885, 407.74823, 89, 88, 98
-1540.580322, 2059.845215, 405.93924, 201, 191, 177
-1580.923218, 2065.540527, 344.625519, 217, 211, 201
-1574.888062, 2023.754517, 353.422058, 194, 193, 192
-1570.881836, 2057.111572, 345.514099, 218, 213, 204
-1569.691284, 1997.786499, 353.431976, 239, 238, 241
-1552.923218, 2046.098267, 359.867401, 194, 191, 189
-1581.988892, 2022.509155, 346.04599, 221, 218, 221
-1570.828735, 2012.701416, 355.684692, 231, 229, 231
-1569.391235, 2029.498291, 348.842133, 150, 150, 152
-1562.298218, 2010.537354, 374.397186, 208, 207, 209
-1585.910767, 2042.638062, 338.747406, 214, 206, 204
-1575.467041, 2018.752197, 400.699493, 224, 223, 221
-1557.839722, 2030.429565, 421.539612, 205, 203, 193
-1550.18811, 2037.388062, 409.375366, 177, 174, 169
-1555.669312, 2036.10144, 398.057739, 190, 187, 181
-1566.637329, 1993.300659, 366.206512, 180, 179, 186
-1563.933472, 1999.949097, 403.423431, 99, 101, 100
-1570.758423, 2022.75769, 382.503204, 149, 148, 155
-1583.091187, 2072.278076, 343.809418, 190, 184, 177
-1576.824097, 2075.631104, 346.611908, 210, 203, 194
-1569.799072, 2070.756836, 350.858185, 216, 209, 193
-1568.639648, 2013.663086, 397.81546, 201, 199, 208
-1581.807617, 2030.512329, 343.828735, 222, 219, 215
-1583.583374, 2070.681885, 343.225372, 198, 192, 185
-1596.488159, 2019.376343, 337.332733, 184, 178, 182
-1592.192749, 2026.749878, 338.639435, 194, 188, 191
-1599.25061, 2030.514648, 335.756561, 183, 175, 171
-1565.671753, 2071.270996, 354.153595, 203, 194, 175
-1598.473267, 2034.088135, 337.269562, 185, 179, 178
-1595.769409, 2043.838867, 335.36203, 183, 181, 182
-1590.661499, 2029.949097, 339.091248, 188, 185, 185
-1594.270142, 2014.787354, 344.410858, 194, 192, 193
-1580.78894, 2033.825562, 342.442719, 223, 218, 217
-1563.111572, 2032.302979, 416.665192, 178, 175, 171
-1586.582642, 2049.200684, 339.272247, 212, 209, 202
-1593.821655, 2025.71936, 338.998016, 186, 185, 189
-1544.362305, 2065.419434, 392.043182, 221, 212, 194
-1555.820923, 2043.112305, 376.342316, 132, 137, 143
-1594.077148, 2019.53418, 338.242889, 198, 197, 195
-1583.557617, 2003.638916, 355.688446, 224, 222, 226
-1580.549072, 2027.424072, 347.169617, 220, 217, 214
-1573.963867, 2031.593628, 350.900818, 161, 160, 158
-1587.925659, 2053.620117, 337.227631, 199, 195, 193
-1549.510742, 2079.559326, 391.658173, 244, 235, 212
-1543.01001, 2044.023315, 405.176453, 134, 139, 143
-1546.15918, 2049.960693, 395.395355, 176, 174, 174
-1556.734253, 2080.326416, 368.317902, 226, 216, 192
-1586.16626, 2030.183472, 341.296478, 195, 192, 188
-1550.089722, 2053.47876, 374.185974, 196, 191, 183
-1586.856079, 2039.511597, 340.899597, 204, 200, 194
-1581.044312, 2056.674805, 344.009399, 216, 211, 201
-1555.628784, 2065.907715, 364.500854, 216, 206, 185
-1545.715454, 2043.435791, 409.830566, 145, 146, 143
-1544.459961, 2067.667725, 386.141449, 233, 223, 208
-1566.686523, 2060.966309, 356.035522, 198, 192, 178
-1561.185791, 2034.249023, 365.837128, 160, 161, 165
-1593.050659, 2033.091187, 342.202423, 195, 192, 193
-1573.835815, 2070.046631, 347.570099, 220, 214, 201
-1577.869385, 2051.941162, 344.425079, 220, 215, 210
-1572.09436, 2002.253784, 350.984711, 237, 236, 238
-1575.86853, 2055.331055, 346.584442, 216, 211, 201
-1589.336548, 2020.246704, 341.710571, 214, 211, 211
-1590.681885, 2003.63269, 352.185577, 223, 221, 224
-1559.400635, 2062.110107, 353.005157, 195, 188, 176
-1569.442017, 2027.505249, 373.225372, 148, 148, 150
-1555.545898, 2069.028076, 359.158051, 220, 209, 187
-1571.887329, 2027.434204, 360.940399, 148, 148, 147
-1574.364624, 2050.868652, 349.686646, 197, 193, 186
-1580.481812, 2047.720093, 339.325562, 214, 209, 200
-1564.088135, 2049.267822, 355.382996, 179, 181, 179
-1578.385742, 2023.07019, 355.166687, 214, 212, 216
-1567.421753, 2040.383423, 358.172943, 149, 152, 153
-1544.29126, 2053.114014, 403.760468, 182, 181, 176
-1553.173218, 2037.136597, 379.21994, 151, 156, 160
-1579.204468, 2015.391968, 337.848755, 212, 208, 203
-1563.147461, 2042.203735, 364.419647, 140, 140, 145
-1574.022461, 2015.94519, 341.507782, 234, 230, 229
-1572.850586, 2050.095215, 348.433807, 203, 200, 197
-1561.40918, 2029.178711, 387.929626, 187, 185, 183
-1591.274048, 2000.160034, 359.423767, 227, 225, 227
-1549.062378, 2039.722534, 383.772095, 138, 141, 144
-1539.21936, 2055.722412, 395.907745, 213, 202, 189
-1553.348267, 2036.31543, 385.417175, 174, 175, 174
-1566.166992, 2007.408447, 402.017029, 147, 147, 149
-1546.233398, 2037.936523, 417.567444, 170, 169, 164
-1539.610718, 2041.51001, 413.260895, 136, 139, 141
-1555.776367, 2035.738892, 412.599701, 194, 192, 183
-1540.141235, 2073.348389, 376.034943, 234, 225, 213
-1566.016968, 2005.043579, 411.183563, 136, 135, 145
-1563.933472, 1999.949097, 403.423431, 99, 101, 100
-1567.537354, 2013.531128, 397.013275, 209, 208, 211
-1570.758423, 2022.75769, 382.503204, 157, 156, 162
-1580.427979, 2024.888916, 351.738007, 219, 217, 215
-1578.511597, 2070.080322, 345.319519, 215, 209, 199
-1563.522461, 2076.395996, 354.990356, 195, 186, 165
-1597.686523, 2027.402222, 337.845428, 185, 181, 183
-1563.72168, 2066.592773, 356.77063, 202, 192, 172
-1590.204468, 2016.160034, 342.22934, 207, 204, 200
-1570.079468, 2061.4021, 352.300659, 204, 199, 186
-1577.165405, 2042.967041, 345.176117, 204, 200, 197
-1594.806885, 2019.41394, 337.539246, 186, 181, 186
-1565.256104, 2069.374756, 353.233826, 203, 194, 175
-1571.481079, 2040.93103, 352.91272, 159, 159, 156
-1596.537354, 2051.695068, 335.3367, 182, 176, 176
-1594.312378, 2040.339722, 335.389923, 192, 190, 194
-1576.892822, 2021.956055, 366.62851, 210, 210, 214
-1555.557617, 2038.060791, 366.37851, 143, 147, 152
-1587.681885, 2010.982666, 343.147247, 206, 204, 198
-1602.059937, 2022.839722, 340.378448, 178, 170, 167
-1573.423218, 2018.473267, 374.119415, 217, 215, 212
-1579.092773, 2031.03186, 340.201935, 224, 219, 218
-1600.262329, 2040.191284, 337.181824, 182, 173, 168
-1563.777954, 2032.161499, 422.463593, 188, 187, 179
-1560.181885, 2035.097534, 417.21759, 184, 183, 174
-1584.575562, 2025.484253, 340.95755, 206, 202, 203
-1589.836548, 2047.954468, 337.0867, 186, 183, 183
-1593.817017, 2052.746826, 337.269073, 167, 168, 173
-1575.635742, 2064.552979, 346.3974, 225, 219, 207
-1579.199829, 2034.496704, 344.128143, 216, 213, 207
-1541.495117, 2062.931885, 395.24173, 227, 219, 204
-1561.524048, 2053.070068, 355.132416, 207, 203, 198
